3.78038471107047,3.272413701888049,18.040149053255263
3.770080320189664,3.284279887481972,16.87269265312172
3.7597386829010757,3.2961136261205075,2.0058778053872794
3.749359901374634,3.307914800892549,6.761084335172791
3.7389440781472336,3.319683295208706,6.037152167200706
3.728491316121722,3.331418992802453,6.741004579739485
3.7180017185658816,3.3431217777312794,5.899164650465165
3.707475389111411,3.354791534377835,6.677189897565851
3.6969124317529016,3.3664281474510704,13.930612481336755
3.6863129508468084,3.3780315019873774,9.913802429971476
3.6756770511104193,3.3896014833517247,2.6494905551102788
3.6650048376208213,3.401137977238791,11.269660208730606
3.654296415813863,3.4126408696740933,19.713358519667544
3.6435518914831118,3.4241100470151133,0.9114859667808206
3.632771370778807,3.435545395952419,15.618032293586042
3.621954960206817,3.446946803510787,8.027757162367797
3.6111027666275803,3.4583141570503155,0.35192551800484306
3.6002148972550523,3.4696473442675395,1.2776766855899413
3.589291459655649,3.4809462531965387,7.2770218918304135
3.5783325617471795,3.492210772210043,8.613989819068932
3.567338311797783,3.50344079002054,15.559613232021945
3.556308818424858,3.5146361956813665,17.264261419000427
3.5452441905939898,3.5257968785878138,7.335305938896466
3.5341445376178733,3.5369227284782108,11.16268611952842
3.523009969155233,3.548013635435023,12.783134207743824
3.511840595209741,3.55906948988593,1.0550184167605958
3.5006365261289285,3.570090182604914,5.4726657333663
3.4893978726030976,3.5810756047133347,19.129906807200232
3.478124745664224,3.5920256476810097,0.8323763165804188
3.466817256684865,3.6029402033272806,14.630693638054526
3.455475517377056,3.613819163822087,12.580014782866664
3.4440996397912063,3.624662421687029,2.623027661709716
3.4326897363149955,3.635469869796432,6.023584253539611
3.42124591967226,3.6462414013783997,12.434929989005445
3.40976830292188,3.6569769100158727,9.113674490193226
3.398256999456664,3.667676289647682,6.674749319046294
3.386712123002227,3.6783394345695926,19.999939555637837
3.375133787615867,3.6889662394353477,13.04580849694132
3.3635221076854394,3.6995565992577135,9.076565140189551
3.351877197928226,3.7101104094095128,9.231961220316764
3.3401991733898013,3.720627565624661,1.572120118294713
3.3284881494428964,3.731107963999192,7.628735079030973
3.3167442417862603,3.741551500992294,17.12289703536929
3.304967566443514,3.7519580734273186,6.878511109395793
3.2931582397620067,3.762327578492814,3.999146259949229
3.2813163784116672,3.77265991374353,16.864273735132798
3.2694420993838467,3.7829549771014386,9.455438751754674
3.257535519990169,3.7932126668567347,15.254379023235227
3.2455967578613656,3.803432881668847,7.454161497767826
3.2336259309461193,3.813615520567437,10.520260926960994
3.2216231575098933,3.8237604829533955,14.532794033867539
3.2095885561337685,3.8338676685998374,1.3835746367604873
3.1975222457132664,3.8439369776530925,12.233758041616959
3.185424345457179,3.853968310633691,8.364855547671704
3.173294974886389,3.863961568437346,2.2832186716609737
3.1611342538326874,3.873916652335935,5.079640163781112
3.148942302437595,3.883833463978472,13.991811643094705
3.1367192411511677,3.893711905392083,8.680378844210772
3.1244651907308145,3.903551878982967,0.9087291516897134
3.1121802722400984,3.9133532875373707,13.396904130778129
3.099864607047543,3.9231160342225384,15.481074121154027
3.0875183168254345,3.9328400225876763,5.01797216925818
3.075141523548617,3.9425251565649004,9.534742788040285
3.0627343494932875,3.9521713404701893,0.36861823791126014
3.0502969172357917,3.9617784790043253,13.56371914255677
3.0378293496514104,3.971346477253841,7.052563336622786
3.025331769913142,3.9808752406919528,14.488237481040613
3.012804301490493,3.990364675179498,9.309935545202379
3.000247068148253,3.9998146869658613,15.189671956267707
2.987660193945273,4.009225182689904,17.59493480624275
2.97504380323324,4.0185960693808855,8.016606298940639
2.9623980206554497,4.02792725445938,1.365613799654839
2.949722971145572,4.037218645738195,19.198747661661418
2.9370187799264214,4.046470151423277,8.24502316248382
2.9242855725087136,4.055681680114624,17.009159423561258
2.911523474689833,4.064853140807186,8.243857830514543
2.8987326125525836,4.073984442891759,16.449687026671796
2.8859131124639448,4.083075496155891,12.875383329483675
2.873065101073826,4.092126210784761,16.618809160680723
2.8601887053138126,4.101136497362078,13.238888524820355
2.8472840523959126,4.1101062668709565,9.38401768859341
2.834351269811299,4.119035430694798,14.36441798218327
2.821390485329052,4.127923900618166,13.107539651406455
2.8084018269948965,4.136771588827661,13.656440708995468
2.795385423129934,4.145578407912782,1.4837049886721343
2.7823414023293793,4.1543442708667975,14.023012551094777
2.7692698934612876,4.163069091087596,5.51755788110232
2.756171025665281,4.171752782378552,15.747752446860678
2.7430449283512743,4.1803952589493685,11.331296304248347
2.729891731198195,4.188996435416927,5.510658588242812
2.716711564152703,4.197556226806137,16.18292452749565
2.703504557427906,4.206074548550768,7.558653837265325
2.690270841502074,4.214551316494286,10.791263517895498
2.677010547117351,4.22298644689069,1.2247101977984864
2.66372380527846,4.2313798564053355,3.977286955817414
2.650410747251412,4.239731462115756,1.1244485215685929
2.6370715045622086,4.248041181512487,12.70781955840121
2.623706208995541,4.256308932499878,7.745867925012327
2.6103149925934903,4.264534633396902,9.7857429035955
2.5968979876542204,4.272718202937968,15.570839959988882
2.583455326730672,4.280859560273721,9.867517503486212
2.5699871426292575,4.288958624971836,19.89604807774989
2.5564935684085395,4.297015317017822,6.390312226082204
2.542974737377925,4.3050295568158035,19.55354181941556
2.5294307830963425,4.313001265189314,19.386235440724104
2.515861839370928,4.320930363382073,1.5683212727780904
2.5022680402556983,4.328816773058765,19.3494706832698
2.488649520050228,4.33666041630582,5.704113707169243
2.4750064132983227,4.3444612156321725,18.281620224640236
2.461338854786693,4.3522190939700325,19.700811892489632
2.4476469795436167,4.35993397467565,9.629381453777077
2.43393092283761,4.367605781530067,3.705806407561245
2.420190820176088,4.375234438739871,1.7970484259817066
2.406426807304028,4.38281987093795,11.696169254440807
2.3926390202026275,4.390362003184226,10.58773427889713
2.378827595087961,4.397860760966408,1.0131917913742994
2.3649926684096334,4.405316070200716,18.16128784266013
2.3511343768494326,4.412727857232625,19.041559226675986
2.3372528573199816,4.420096048837579,7.642635983025469
2.32334824696338,4.427420572221729,11.032294027911655
2.309420683149855,4.434701355022642,10.950593175589507
2.2954703034764004,4.4419383253100175,11.841918477073198
2.281497245765421,4.449131411586401,12.33584905446575
2.2675016480633654,4.456280542787889,15.712851858506074
2.253483648639368,4.463385648284831,9.101114418492793
2.2394433859838796,4.470446657882527,0.8602706546078065
2.2253809988072986,4.477463501821922,12.025312633790772
2.2112966260386053,4.484436110780293,10.057361544459733
2.197190406823983,4.491364415871936,0.5530176799449071
2.183062480525448,4.498248348648847,1.7073680417378334
2.168912986719469,4.505087841101395,13.719431091554437
2.1547420651955944,4.511882825658998,13.63046278049852
2.140549855955064,4.518633235190786,13.108222406027764
2.1263364992094296,4.525339003006271,7.329647503468236
2.1121021353791685,4.532000062855996,16.910983276105206
2.097846905092298,4.538616348932202,9.772223274632596
2.083570949182986,4.545187795869464,6.226583446116205
2.069274408690157,4.551714338745348,3.8416257497641415
2.0549574248561004,4.558195913081049,4.509623647284431
2.0406201391250747,4.5646324548420285,10.463070909477288
2.0262626931419128,4.57102390043864,17.91208005916252
2.0118852287506175,4.577370186726771,1.5247949884881096
1.997487887992965,4.583671251008454,18.03698057669513
1.9830708131070969,4.589927031032493,4.137972988790015
1.9686341465261215,4.596137464995077,17.501502089230044
1.9541780308766992,4.602302491540388,1.1723542021285027
1.9397026089776386,4.608422049761213,11.44247623326259
1.9252080238384839,4.614496079199539,16.296396178086354
1.9106944186580999,4.620524519847155,19.079449708475543
1.8961619368232636,4.626507312146242,16.975126539666913
1.8816107219072398,4.632444396989964,7.695217969482182
1.8670409176683676,4.63833571572305,11.17686984910347
1.8524526680486375,4.644181210142374,15.664209164749437
1.837846117172274,4.649980822497529,10.89944497089215
1.8232214093443049,4.655734495491401,16.250533989397827
1.8085786890491407,4.661442172280729,13.431694172832355
1.7939181009491443,4.6671037964766775,14.675291350323917
1.7792397898832057,4.672719312145377,15.422326083393603
1.764543900865306,4.678288663808493,1.3694406930778413
1.7498305790830884,4.683811796443762,15.362600545252098
1.735099969896422,4.689288655485545,0.8526317325738253
1.7203522188359657,4.69471918682536,0.9673102402526634
1.7055874716017339,4.700103336812416,4.943582919925415
1.6908058740616516,4.705441052254146,17.902668086183336
1.6760075722501167,4.710732280416737,4.966280909046272
1.661192712366555,4.715976969025639,15.126178935679519
1.646361440773982,4.72117506626609,10.661712031880704
1.6315139039975468,4.726326520783629,11.319867134651737
1.616650248723093,4.731431281684598,19.313111686896846
1.6017706217957053,4.736489298536649,19.511579991766585
1.58687517021826,4.74150052136924,7.7567053150500165
1.571964041149974,4.746464900674126,14.354142044359502
1.5570373819049483,4.751382387405857,19.18213015589906
1.5420953399507136,4.756252932982254,18.360666725313774
1.5271380629067732,4.761076489284892,12.424612201563576
1.5121656985431484,4.765853008659574,17.601440239476954
1.497178394778911,4.770582443916806,4.6677709621352115
1.4821762996807288,4.775264748332258,5.058737521573349
1.4671595614613984,4.77989987564723,7.315825706693935
1.4521283284783855,4.784487780069103,7.38705557586912
1.4370827492323535,4.789028416271799,3.9618746688434525
1.422022972365701,4.793521739396225,15.098575282279334
1.4069491466610908,4.7979677050507155,2.408112578640409
1.3918614210399805,4.80236626931147,2.4291725187288615
1.376759944561154,4.806717388722991,6.546763281304502
1.3616448664192438,4.811021020298511,11.447260479049516
1.3465163359432601,4.815277121520415,7.968518665154534
1.331374502595115,4.819485650340668,4.752643143222999
1.316219515968148,4.823646565181219,19.871149575083365
1.3010515257856439,4.8277598249344225,13.227284348301517
1.2858706818993562,4.831825388963439,10.610151623036906
1.2706771342880254,4.835843217102636,1.8290959885842217
1.2554710330559016,4.839813269657988,1.665564299024549
1.240252528431254,4.843735507407468,18.77228153880871
1.2250217707648925,4.847609891601432,0.8072160938424022
1.2097789105286807,4.851436383963005,4.671073072567289
1.1945240983140477,4.855214946688458,10.068007593788257
1.1792574848305055,4.858945542447582,4.706761578589893
1.163979220904153,4.862628134384056,1.3251270477522392
1.1486894574761903,4.86626268611581,18.068485104317983
1.1333883456014253,4.869849161735388,9.480808301694559
1.1180760364467868,4.8733875258103,14.16396915534695
1.102752681289822,4.876877743383374,0.3715045973928466
1.0874184315172093,4.880319779973096,13.438884479852584
1.0720734386232593,4.883713601573961,3.159165157616406
1.0567178542084181,4.8870591746567955,5.845608502697742
1.0413518299777742,4.890356466169101,4.467861038962411
1.025975517739552,4.8936054435353755,2.1408145422694314
1.0105890694036175,4.896806074657432,14.424838232861472
0.9951926369799745,4.899958327914723,7.587257505587088
0.9797863725772682,4.903062172164644,14.825514586630318
0.964370428401275,4.906117576742851,17.142325736483485
0.9489449567534034,4.909124511463554,7.576790590741407
0.9335101100291872,4.912082946619824,13.032757123695779
0.9180660407167845,4.914992852983879,6.081086058792464
0.9026129013954642,4.917854201807375,7.42713376555042
0.8871508447341034,4.920666964821697,4.366069248329834
0.8716800234896775,4.923431114238223,6.466487459319725
0.8562005905057507,4.926146622748616,12.850248515394435
0.8407126987109697,4.928813463525082,5.1274304489480755
0.8252165011175465,4.931431610220638,9.753625770972992
0.8097121508197511,4.934001036969374,5.670247925670466
0.794199800992397,4.936521718386706,8.474463505314038
0.7786796048893319,4.938993629569631,2.7369208883407947
0.7631517158419174,4.941416746096968,6.52618400413584
0.7476162872575185,4.9437910440296005,5.748386851453448
0.7320734726179856,4.946116499910717,3.969110193180323
0.7165234254781429,4.9483930907660385,18.491322088377494
0.7009662994642645,4.950620794104045,15.961865193334797
0.6854022482725609,4.952799587916204,11.54719451602885
0.6698314256676602,4.954929450677177,0.24997971278257536
0.6542539854810872,4.957010361345043,16.70167105704567
0.638670081609748,4.9590422993615,9.962461275319418
0.6230798680144036,4.961025244652072,0.5997563465892797
0.6074834987181523,4.962959177626304,7.957471631061319
0.5918811278049072,4.964844079177954,8.161936270969402
0.5762729094178766,4.966679930685191,4.5384413037144995
0.5606589977580358,4.968466714010767,15.992634648836667
0.5450395470826084,4.9702044115022055,11.588701915124664
0.5294147117035394,4.971893005991969,2.914482526609339
0.5137846459859716,4.973532480797634,0.2454602297109787
0.4981495043467237,4.975122819722053,6.630516681256696
0.4825094412527587,4.976664007053515,8.885317461877369
0.466864611219662,4.978156027565902,12.565292070131964
0.4512151688101128,4.979598866518835,5.876201764145598
0.43556126863236133,4.980992509657826,0.6296872474171233
0.41990306533869515,4.982336943214415,13.956566884057121
0.4042407136239151,4.983632153906308,11.9990633855863
0.3885743682238055,4.9848781289375035,13.662080908828562
0.37290418391360924,4.986074855998426,13.123640853171924
0.35723031550649237,4.9872223232660415,13.57835324608141
0.3415529178520191,4.988320519403978,4.771736228024917
0.32587214583462043,4.989369433562636,4.198679598683741
0.31018815437206365,4.990369055379297,16.379586580001412
0.2945010984139253,4.9913193749782225,16.099218565807444
0.2788111329400546,4.992220382970756,14.86633962455791
0.26311841295904614,4.993072070455414,9.794040993191874
0.24742309350670655,4.993874429017971,3.692702036765265
0.2317253296445272,4.994627450731549,13.851139791444824
0.21602527645814554,4.995331128156689,9.645253260468635
0.2003230890558175,4.995985454341429,5.2605239487434545
0.18461892256688292,4.996590422821371,12.217201798250164
0.16891293214023714,4.997146027619744,16.53813107123471
0.15320527294279182,4.997652263247467,5.459992452376772
0.13749610015794622,4.998109124703197,0.016654919524490275
0.12178556898405321,4.998516607473384,6.011293556791197
0.10607383463288453,4.998874707532313,1.78774143354538
0.0903610523281021,4.9991834213421456,13.74594410405454
0.07464737730371773,4.999442745852949,18.104622201650788
0.05893296480256396,4.999652678502736,3.543510439266069
0.043217970074758055,4.999813217217481,18.12638748604142
0.02750254837617273,4.999924360411147,4.021217428353518
0.011786854966895625,4.9999861069856975,2.098624441561332
-0.003928954890300165,4.999998456331109,17.607831195625614
-0.019644725931491108,4.999961408325376,10.49800952228711
-0.03536030289313824,4.999874963334514,11.426048176127805
-0.0510755305136167,4.999739122212553,7.100923275790613
-0.06679025353475623,4.999553886301533,4.0875472583784696
-0.08250431670337069,4.999319257431487,13.48773346937594
-0.09821756477279397,4.999035237920423,3.0563823048154037
-0.11392984250440946,4.998701830574307,4.393307749433681
-0.12964099466919024,4.998319038687025,12.206672483932428
-0.14535086604922834,4.997886866040361,9.171269114364355
-0.16105930143927033,4.9974053169039525,0.19306189458388578
-0.17676614564824633,4.996874396035252,2.29080294057749
-0.19247124350080974,4.996294108679477,13.41507782896181
-0.20817443983886605,4.995664460569563,10.728725496376303
-0.22387557952310663,4.994985457926099,17.99834278233338
-0.2395745074345426,4.994257107457274,2.810077120170622
-0.2552710684760329,4.993479416358808,5.656223746732674
-0.2709651075738233,4.99265239231388,7.161453765810151
-0.286656469679074,4.991776043493051,12.391315731623532
-0.3023449997693932,4.9908503785541845,17.115084715933193
-0.3180305428503652,4.989875406642365,5.909249080757942
-0.3337129439570871,4.9888511373897995,15.875405784566336
-0.3493920481556964,4.98777758091573,13.004293269727306
-0.36506770054490323,4.986654747826328,19.592309423268542
-0.38073974625751633,4.985482649214593,16.152354301998447
-0.39640803046198003,4.984261296660244,4.7293928155696126
-0.4120723983638993,4.982990702229598,3.5385959999623284
-0.42773269520756985,4.981670878475461,12.440860619609253
-0.44338876627750873,4.980301838436994,18.042678056341977
-0.45904045689997786,4.978883595639595,6.551034719187356
-0.474687612444519,4.977416164094753,19.851981158282044
-0.49033007832547726,4.975899558299919,3.060013656772713
-0.5059677000035299,4.974333793238361,6.818845884756765
-0.5216003229872093,4.972718884379011,17.527132931548493
-0.5372277928344353,4.97105484767632,14.463349423391136
-0.5528499551540375,4.9693416995700925,12.353399385990155
-0.5684666556072803,4.967579456985331,18.68583189603145
-0.5840777399093902,4.965768137332062,2.790292452664429
-0.5996830538310747,4.963907758505171,18.476639414859314
-0.6152824432000531,4.9619983388842215,13.682245838618613
-0.6308757539025749,4.960039897333272,4.200503768027481
-0.6464628318849447,4.958032453200695,16.708709494818223
-0.6620435231550401,4.95597602631898,19.39906177433017
-0.6776176737838389,4.953870637004541,5.63135649497708
-0.693185129906936,4.951716306057517,8.33098400948165
-0.7087457377260663,4.949513054761562,9.196687056040549
-0.7242993435106178,4.94726090488364,2.73257452059106
-0.7398457935991591,4.944959878673803,10.319386796503613
-0.7553849344009522,4.942609998864979,19.81511512501988
-0.7709166123974703,4.940211288672743,10.833964584089772
-0.7864406741439173,4.937763771795089,18.915215354919756
-0.8019569662707373,4.935267472412193,4.696192803130524
-0.8174653354851382,4.932722415186179,7.119885204095054
-0.8329656285726008,4.930128625260871,0.19506472904430305
-0.8484576923983946,4.927486128261549,7.49159238460919
-0.8639413739090871,4.92479495029469,2.10480986885049
-0.8794165201340614,4.922055117947715,16.55446373971399
-0.8948829781870239,4.919266658288725,1.3030745997711102
-0.9103405952675168,4.916429598866233,4.936457282493423
-0.9257892186624228,4.91354396770889,4.771181667422029
-0.9412286957474811,4.9106097933252135,19.042267365448645
-0.9566588739887903,4.9076271047033,8.85713707993261
-0.9720796009443171,4.904595931310544,15.823440630170065
-0.9874907242654023,4.901516303093339,4.558095334725634
-1.0028920916982629,4.898388250476792,15.862449189289674
-1.0182835510855017,4.895211804364414,3.318487433806512
-1.0336649503676072,4.8919869961378195,13.543327770888887
-1.0490361375844572,4.888713857656416,18.294368530533106
-1.0643969608768165,4.885392421257088,7.134578672766329
-1.0797472684878424,4.882022719753877,0.5950509542002447
-1.0950869087645811,4.878604786437658,2.2290585758075565
-1.1104157301594668,4.875138655075814,10.037073408026648
-1.1257335812318188,4.871624359911896,15.192172655903393
-1.1410403106493348,4.868061935665287,7.7946931780536755
-1.1563357671895915,4.864451417530867,15.712505577337314
-1.1716197997415347,4.860792841178649,14.355776386108927
-1.1868922573069742,4.857086242753443,13.916062074547089
-1.202152989002072,4.853331658874487,1.9721474317147014
-1.2174018440588372,4.849529126635094,13.55903036781635
-1.2326386718266147,4.845678683602279,14.673776526251448
-1.2478633217735722,4.8417803678163915,0.9910719165443771
-1.2630756434881851,4.8378342177907365,4.76049306552696
-1.278275486680729,4.833840272511199,10.638085707041515
-1.2934627011847595,4.829798571435855,17.553825673034634
-1.308637136958596,4.825709154494581,6.9753143353800295
-1.323798644086807,4.821572062088664,18.178374918651084
-1.3389470727816863,4.817387335090396,5.188013072718682
-1.354082273384738,4.813155014842677,13.076639696675434
-1.3692040963681524,4.808875143158603,11.076540267949817
-1.3843123923362841,4.804547762321048,7.441337781425974
-1.399407012027125,4.800172915082259,1.356585576972793
-1.4144878063137842,4.795750644663421,8.622209522357593
-1.4295546262059575,4.791280994754236,15.768414631271897
-1.4446073228514014,4.786764009512492,19.68972947424259
-1.4596457475373996,4.782199733563623,0.3123840504171649
-1.4746697516922387,4.777588212000271,15.087247057526525
-1.48967918688667,4.772929490381842,4.391964040317873
-1.5046739048353805,4.768223614734049,11.85940449129973
-1.5196537573984559,4.763470631548468,9.774540595619687
-1.5346185965828405,4.758670587782066,19.86942689771047
-1.5495682745438066,4.753823530856749,19.89452275875362
-1.564502643586411,4.748929508658886,0.852266410226068
-1.5794215561669538,4.743988569538839,14.937388797737585
-1.5943248648944353,4.739000762310483,17.574582154153177
-1.6092124225320161,4.733966136250728,14.001877570024376
-1.6240840819984683,4.728884741099025,1.8219596721283748
-1.6389396963696299,4.723756627056884,17.622191973807485
-1.6537791188798563,4.718581844787368,1.292815095917974
-1.6686022029234673,4.713360445414604,10.053566930634588
-1.6834088020562012,4.7080924805232645,14.772986497631742
-1.698198769996658,4.702778002158069,12.794766918930502
-1.712971960627745,4.697417062823264,19.932974381981303
-1.7277282279981185,4.692009715482107,5.435300533559939
-1.7424674263236302,4.686556013556341,13.255128616839118
-1.757189409988764,4.681056010925669,12.444714408062278
-1.7718940335480764,4.67550976192722,19.18974031647045
-1.7865811517276309,4.669917321355012,5.6720873105106655
-1.8012506194264357,4.664278744459414,10.978241350997738
-1.8159022917178773,4.658594086946593,19.74105015567941
-1.8305360238511508,4.652863404977973,0.31189216868990455
-1.8451516712526916,4.647086755169672,1.0523952950241844
-1.8597490895275994,4.64126419459195,19.26505958900907
-1.8743281344610718,4.635395780768636,3.629292350174438
-1.888888662019824,4.629481571676569,6.121521022993203
-1.9034305283535136,4.623521625745019,6.7674516207458835
-1.9179535897961588,4.617516001855114,12.05357830691189
-1.9324577028675636,4.611464759339252,2.4713653083377585
-1.94694272427473,4.605367957980523,16.56908075710742
-1.9614085109132775,4.599225658012114,16.357602163047574
-1.9758549198688513,4.593037920116712,14.220155601395879
-1.9902818084185412,4.58680480542591,16.19885233526356
-2.004689034032287,4.580526375519597,17.045907301179618
-2.0190764543742885,4.574202692425353,15.699012083348876
-2.033443927304412,4.567833818617837,14.295000494548551
-2.04779131087959,4.561419817018167,5.383875457817526
-2.062118463355232,4.554960750993301,16.25493632761496
-2.076425243186617,4.548456684355409,8.088489339287044
-2.090711509030296,4.541907681361243,15.505395174970033
-2.1049771197454885,4.535313806711503,5.082599078663712
-2.119221934395474,4.5286751255501985,3.3671549180932536
-2.133445812248984,4.5219917034640025,12.61579714104245
-2.147648612781602,4.515263606481604,15.21952284545204
-2.161830195677136,4.508490901073058,10.348304199146837
-2.1759904208290193,4.501673654149126,19.604224832195346
-2.1901291483416854,4.4948119330606175,14.056987793595672
-2.2042462385319506,4.487905805597723,0.11071255827794779
-2.218341551930404,4.480955339989342,12.004075822636722
-2.2324149492827696,4.473960604902418,12.656326338889816
-2.2464662915512985,4.466921669441245,3.7957201548864594
-2.2604954399161277,4.459838603146799,16.956396166356605
-2.2745022557766585,4.452711475996046,2.746965254620335
-2.288486600752933,4.445540358401247,15.71472235020898
-2.3024483366869846,4.438325321209266,3.1477688078168597
-2.316387325644219,4.431066435700871,19.237717747636566
-2.330303429914766,4.423763773590027,0.8633793276650903
-2.3441965120148436,4.41641740702319,2.763585965360935
-2.358066434688122,4.409027408578591,10.264142333491739
-2.371913060907069,4.401593851265523,10.528761210983271
-2.3857362538743083,4.394116808523617,11.757724521787726
-2.3995358770239794,4.3865963542221165,12.83490292925122
-2.4133117940230693,4.379032562659149,11.220770629981978
-2.4270638687727786,4.37142550856099,6.871587466775278
-2.4407919654098498,4.363775267081329,16.10149956870454
-2.454495948307917,4.356081913800522,10.33170936242521
-2.468175682078852,4.348345524724845,1.9454376834652543
-2.481831031574086,4.340566176285751,11.704964861725566
-2.4954618618859628,4.332743945339102,19.92786151719799
-2.5090680383490565,4.324878909164419,3.0157527852739774
-2.522649426541508,4.31697114546412,10.124433828935828
-2.53620589228636,4.309020732362743,0.8022621456397094
-2.5497373016528693,4.301027748406182,4.1484476412149345
-2.5632435209578364,4.292992272560909,2.4832771378558283
-2.5767244167669325,4.284914384213192,11.188045446878743
-2.5901798558960043,4.276794163168313,17.289769280658852
-2.6036097054124037,4.26863168964978,7.635727727795365
-2.61701383263629,4.260427044298531,16.14407434207364
-2.6303921051419437,4.252180308172142,4.65663541703794
-2.643744390759084,4.24389156274402,8.293402246486295
-2.657070557574157,4.235560889902606,0.5049200019678834
-2.6703704739316585,4.227188371950557,9.801062204240198
-2.683644008435418,4.218774091603944,10.6719492090069
-2.696891029949904,4.210318131991423,14.270190702026756
-2.710111407601525,4.201820576653421,7.391010132211435
-2.723305010779911,4.193281509541308,1.2986087567079507
-2.7364717091392117,4.1847010150165715,4.506388206325964
-2.749611372599384,4.176079177849975,2.566428467878321
-2.7627238713474727,4.167416083220733,5.847614895166906
-2.7758090758388985,4.158711816715652,12.5478386459819
-2.7888668567987325,4.149966464328304,8.848053089211724
-2.8018970852229734,4.141180112458163,9.176682805638983
-2.814899632379833,4.1323528479097575,17.33287825465555
-2.82787436981099,4.123484757891812,9.592927441512453
-2.8408211693328758,4.114575930016384,14.343235577114797
-2.8537399030379285,4.105626452298002,13.38146193897427
-2.866630443295862,4.096636413152791,18.32764237183655
-2.8794926627549327,4.087605901397603,10.144668539632484
-2.8923264343431847,4.078535006249136,4.820992949034983
-2.905131631269713,4.0694238173230595,5.169672304653621
-2.91790812702592,4.0602724246331166,4.906111901719985
-2.9306557953867536,4.051080918590252,14.035670036872869
-2.9433745104119686,4.0418493900016985,4.773425143805554
-2.956064146447358,4.0325779300701,11.49374079809207
-2.9687245781260003,4.023266630392596,1.3961176874761327
-2.981355680369502,4.013915582959924,13.58606006523547
-2.9939573283892225,4.004524880155506,0.531204814020525
-3.0065293976875207,3.9950946147545388,5.347116046276616
-3.019071764058972,3.9856248799230776,0.43290746304670114
-3.0315843035916017,3.9761157692171167,5.236638678416181
-3.0440668926681127,3.9665673765816583,15.526519968710403
-3.056519407967098,3.9569797963497946,10.766484437184257
-3.0689417264642636,3.947353123241768,11.603494089858483
-3.0813337254336504,3.9376874523640373,10.35382466237152
-3.0936952824488317,3.9279828792083404,5.061649657359846
-3.1060262753841377,3.9182394996507472,4.872068464943233
-3.118326582415853,3.9084574099507168,9.776802827429925
-3.13059608202342,3.8986367067501444,0.017448589880817433
-3.1428346529906492,3.8887774870724017,6.698100854197326
-3.155042174406903,3.8788798483213895,10.70183237806196
-3.167218525668302,3.868943888280561,8.700725265163456
-3.1793635864789076,3.8589697051119716,12.884414150644744
-3.1914772368519158,3.848957397355297,9.466017072927322
-3.203559357110843,3.8389070639268623,18.766155078196043
-3.2156098278907024,3.8288188041186704,7.013958939090779
-3.227628530139194,3.818692717597412,15.735330742891325
-3.2396153451178673,3.8085289044034893,15.181926491875043
-3.2515701544033027,3.7983274649500256,17.750063496577418
-3.2634928398882845,3.788088500021865,19.853693709158595
-3.2753832837829586,3.77781211077459,5.711219739584061
-3.2872413686160007,3.7674983987335153,7.452075043657372
-3.299066977235782,3.7571474657926807,8.704428940882798
-3.310859992811514,3.746759414213854,19.037328719512523
-3.3226202988344182,3.73633434662551,8.11948336661381
-3.3343477791188647,3.725872366021828,7.691058110954295
-3.346042317803523,3.7153735757616664,19.120181622812165
-3.3577037993525134,3.70483807956754,13.495096992503836
-3.369332108556538,3.694265981524605,9.208772789579783
-3.38092713053403,3.683657386079619,2.836803121570859
-3.3924887507322774,3.6730123980399183,15.745246795918444
-3.4040168549285617,3.6623311225723794,12.358193060653043
-3.415511329231288,3.6516136652023743,12.639973774663812
-3.4269720600811033,3.64086013181274,7.744903807359562
-3.438398934252021,3.6300706286427213,10.298884809771875
-3.4497918388525477,3.6192452622869253,13.469697636562046
-3.4611506613267826,3.608384139694272,12.519344842049398
-3.472475289455547,3.5974873681669295,9.811546386882451
-3.483765611357476,3.586555055359261,3.970084361490811
-3.4950215154901363,3.5755873092767616,11.010021436059368
-3.5062428906511265,3.5645842382749815,16.75943247653349
-3.517429625979168,3.5535459510584704,5.750870346041783
-3.5285816109552104,3.5424725566796895,17.848761635622978
-3.539698735403514,3.5313641645379423,5.397971497878061
-3.550780889492745,3.5202208843782956,4.968816949672988
-3.5618279637370605,3.509042826290484,5.3293935799739245
-3.572839848997183,3.4978301007078354,1.267758147621707
-3.583816436481486,3.4865828184061742,18.01734055446667
-3.5947576177470704,3.4753010905027217,12.35487325589882
-3.605663284700824,3.463985028455011,3.2745047915291137
-3.6165333296005047,3.4526347440597718,13.27096418600399
-3.6273676450557932,3.441250349451836,13.371788217894407
-3.638166124029359,3.429831957103029,10.83315417539332
-3.6489286598379183,3.418379679821048,13.837247042645338
-3.659655146153285,3.406893630748365,18.523348621310106
-3.6703454770034267,3.3953739233610913,2.7586253795873716
-3.6809995467735037,3.3838206714678694,3.013706070904416
-3.6916172502069164,3.3722339892087443,5.618815845311438
-3.702198482406352,3.3606139910540316,10.237274615511552
-3.7127431388348064,3.3489607918031927,15.53798528137306
-3.723251115316628,3.337274506583701,12.335549749882162
-3.733722308038547,3.325555250849895,11.791803943440568
-3.7441566135506905,3.3138031403818524,8.362411115834485
-3.7545539287676193,3.302018291284231,3.0368753676055515
-3.764914150969335,3.290200819985134,4.992219059946496
-3.7752371778022975,3.2783508432349557,0.32526175838750726
-3.7855229072804413,3.2664684781052205,17.99338365003793
-3.795771237786174,3.2545538419874416,19.636177713282187
-3.805982068071392,3.2426070525919437,3.2822367529926666
-3.816155297258468,3.230628227946715,4.199486209422383
-3.826290824841255,3.218617486396237,9.142715274840043
-3.836388550686082,3.2065749466003046,17.776764887737638
-3.8464483750327343,3.19450072753287,11.701636789361434
-3.8564701984954457,3.18239494848086,7.399230166774176
-3.866453922063881,3.1702577290429925,10.945894761640467
-3.876399447104108,3.1580891891286047,16.965084089431464
-3.88630667535958,3.145889448956458,8.265225531041247
-3.8961755089520986,3.133658629053562,1.0582434241940275
-3.9060058503827855,3.1213968502539773,0.2946554531471679
-3.915797602533048,3.1091042336976153,13.377956489064811
-3.9255506686655277,3.096780900829057,12.450017954509283
-3.935264952425073,3.0844269733963365,9.25865152672878
-3.944940357839676,3.072042573449751,10.782982740084359
-3.9545767893214245,3.0596278233406515,5.793749787330709
-3.964174151667455,3.0471828457202257,18.958495148407405
-3.9737323500608794,3.034707763538301,5.202589767259478
-3.9832512900717356,3.022202700042116,19.587715038790172
-3.992730877657907,3.009667778775112,15.913984414269668
-4.002171019166062,2.9971031235757106,7.816648230605896
-4.0115716213325765,2.984508858576084,13.349703474787473
-4.020932591284452,2.971885108200938,10.194732147061433
-4.030253836540234,2.9592319971662793,2.2412747791921173
-4.039535265010931,2.9465496504781767,16.61283893441071
-4.048776785000917,2.9338381934315394,8.499340127751449
-4.057978305208845,2.9210977516088628,12.609950496714577
-4.067139734728539,2.9083284508790044,0.6548097619450766
-4.0762609830499015,2.8955304173959306,14.301011865452365
-4.0853419600598055,2.882703777597468,5.716947736253526
-4.094382576042977,2.8698486582040648,18.325349463558524
-4.103382741682897,2.8569651862175274,18.478006404523523
-4.1123423680626665,2.8440534889197733,1.9845373345901574
-4.121261366665896,2.8311136938715737,6.793553085783883
-4.13013964937758,2.8181459289112833,11.430273418490415
-4.138977128484959,2.805150322153592,14.903275199274482
-4.147773716678394,2.792127001988252,13.59695399102854
-4.156529327052228,2.7790760970788027,16.110813458602696
-4.165243873105641,2.7659977363613137,12.67207307103391
-4.173917268743512,2.7528920490430964,12.5789485756093
-4.182549428277257,2.739759164601441,8.013781405593539
-4.191140266425687,2.72659921278233,14.341151721296029
-4.199689698315846,2.7134123235991527,9.183368244394092
-4.208197639483851,2.7001986273314307,19.797691637354806
-4.2166640058757245,2.68695825452352,15.612655403912822
-4.225088713848226,2.673691335983333,7.507538556507862
-4.233471680169677,2.6603980027810374,4.232079840051126
-4.241812822020787,2.6470783862477596,2.8765958004776238
-4.2501120569954685,2.633732617974298,10.182022819285365
-4.258369303101648,2.6203608298098153,9.578866050442123
-4.266584478762087,2.6069631538605313,15.859856497106747
-4.274757502815175,2.5935397224884316,12.49557809202254
-4.282888294515741,2.5800906683099436,9.467966246496474
-4.290976773535844,2.56661612419464,7.721536509222052
-4.2990228599655715,2.5531162232639226,4.649429184054443
-4.30702647431383,2.5395910988896975,12.309082866911002
-4.314987537509122,2.5260408846930735,5.053633586161226
-4.322905970900339,2.512465714543026,16.334827600132083
-4.33078169625753,2.4988657225550863,9.212731923773813
-4.338614635772673,2.485241043090016,4.263743379106472
-4.346404712060457,2.471591810752466,10.396967561935007
-4.354151848159028,2.4579181603896654,4.950102582616951
-4.361855967530762,2.4442202270900792,9.4538463408743
-4.369516994063019,2.43049814618207,1.0655634330848684
-4.37713485206889,2.416752053232573,7.889940404949418
-4.384709466287953,2.402982084045742,11.025449254242723
-4.392240761887008,2.389188374661622,6.165516507064959
-4.399728664460819,2.375371061354798,12.024971130008817
-4.407173100032856,2.3615302806330436,14.35442939429759
-4.414573995056015,2.3476661692359864,17.418009122367362
-4.421931276413353,2.3337788641337407,7.462094187353578
-4.429244871418804,2.3198685025255674,6.759575016571033
-4.436514707817901,2.305935221838515,3.838988969826984
-4.443740713788492,2.2919791597260533,6.203126935171794
-4.450922817941442,2.278000454066727,11.501525490540985
-4.458060949321344,2.2639992429627873,12.171104474064546
-4.465155037407223,2.249975664738821,12.412176211899588
-4.472205012113222,2.2359298579403992,14.476871441224354
-4.479210803789307,2.22186196133269,10.025990549267949
-4.486172343221945,2.207772113899104,6.344531779404532
-4.493089561634793,2.1936604548399155,12.156884160980262
-4.499962390689378,2.1795271235708773,12.90316802034159
-4.506790762485766,2.1653722597218636,15.568012019498262
-4.513574609563244,2.151196003135469,13.817204874761948
-4.520313864900973,2.1369984938656432,18.114218706015738
-4.527008461918661,2.1227798721763023,13.599444331921598
-4.533658334477217,2.1085402785399356,9.301665402652233
-4.540263416879401,2.094279853636231,14.431244287501553
-4.5468236438704785,2.079998738350672,10.923922324363716
-4.553338950638863,2.0656970737731566,17.318649375142105
-4.559809272816753,2.051375001196601,1.223292502790494
-4.566234546480777,2.037032662115534,7.705117974933923
-4.572614708152613,2.022670198224713,6.822959025023653
-4.578949694799624,2.0082877514177184,2.0867913144284445
-4.58523944383548,1.9938854637855457,4.085688173239868
-4.591483893120772,1.979463477615214,7.877593375923735
-4.597682980963633,1.9650219353883465,4.979905034715692
-4.603836646120338,1.9505609797797758,16.488027354807308
-4.609944827795916,1.9360807536561284,11.424720867158172
-4.616007465644751,1.9215814000744071,12.55817748994777
-4.6220244997711735,1.9070630622805929,1.3556008106716222
-4.627995870730056,1.8925258837082113,10.735586088155406
-4.633921519527399,1.877970007976932,16.861578847084658
-4.6398013876209125,1.8633955788911423,0.4097346357209064
-4.645635416920598,1.8488027404385203,8.019310002897743
-4.651423549789318,1.8341916367886266,9.199703422944705
-4.657165729043368,1.8195624122914706,15.31524411817033
-4.662861897953043,1.8049152114760811,19.07136738106789
-4.668512000243193,1.790250179049091,4.461830738262435
-4.674115980093784,1.7755674598932922,3.656310721220315
-4.679673782140449,1.7608671990662184,15.687723094587025
-4.685185351475027,1.7461495417987059,14.776395389686714
-4.690650633646119,1.731414633493452,17.823583508784097
-4.696069574659615,1.7166626197235935,13.987781539787086
-4.701442120979231,1.7018936462312526,8.665622409928702
-4.706768219527041,1.6871078589261101,5.151572313725872
-4.712047817683996,1.6723054038839589,3.5108015057218656
-4.717280863290448,1.6574864273452534,0.1162662829420924
-4.72246730464666,1.642651075713679,13.16084633251382
-4.727607090513326,1.6277994955546973,14.122965810385391
-4.732700170112068,1.6129318335940936,10.299919747963317
-4.737746493125941,1.5980482367165414,6.485024956180276
-4.742746009699934,1.583148851964134,4.398675627243298
-4.747698670441455,1.568233826534947,3.6243783660214413
-4.752604426420824,1.5533033077815777,8.533451548555997
-4.757463229171758,1.5383574432096827,6.671137132617096
-4.762275030691842,1.5233963804765365,1.3362855065068957
-4.767039783443015,1.508420267389554,2.1218566929409755
-4.771757440352028,1.4934292519048462,16.657582748043627
-4.776427954810913,1.4784234821257525,19.406519563774435
-4.781051280677452,1.4634031063013697,19.01896806231681
-4.785627372275617,1.4483682728251022,9.594374079613157
-4.790156184396035,1.4333191302331871,17.59627843483243
-4.794637672296427,1.4182558272032229,8.593384534912742
-4.799071791702053,1.403178512552713,12.354765470295888
-4.80345849880615,1.3880873352375804,3.0723039744455494
-4.807797750270361,1.3729824443507108,0.3202683272365636
-4.812089503225168,1.3578639891204716,3.78127869663466
-4.816333715270311,1.3427321189092336,3.5598274432282317
-4.820530344475212,1.327586983211908,4.419346960800484
-4.824679349379385,1.312428731654454,2.8559568265614588
-4.828780688992845,1.2972575139924156,11.662854372530052
-4.8328343227965185,1.2820734801094336,13.673896097681514
-4.836840210742639,1.266876780015761,12.14273166433002
-4.840798313255143,1.2516675638467925,17.292169112040966
-4.844708591230061,1.236445981861575,17.164380690313067
-4.848571006035909,1.2212121844413166,11.50623409865631
-4.852385519514061,1.2059663220879164,18.513193601406982
-4.8561520939791345,1.1907085454224597,7.859310954805734
-4.859870692219356,1.1754390051837453,13.11979560093545
-4.863541277496935,1.1601578522267906,12.87292416184824
-4.867163813548422,1.1448652375213328,6.901007070514251
-4.870738264585069,1.1295613121503554,17.316861319930346
-4.874264595293182,1.1142462273085756,3.9536976102595722
-4.877742770834471,1.0989201343009667,7.7186890508743495
-4.881172756846394,1.0835831845412576,18.129954116477606
-4.884554519442496,1.068235529550429,19.82704956275924
-4.887888025212743,1.0528773209552327,3.2002530841154253
-4.891173241223855,1.037508710486676,2.7701846766871063
-4.894410135019628,1.0221298499785374,0.19822043160625746
-4.897598674621255,1.0067408913658602,14.597067051338248
-4.900738828527645,0.9913419866834461,13.584105409890592
-4.903830565715732,0.9759332880643641,6.102349510894807
-4.9068738556407805,0.9605149477384427,10.019599907177671
-4.9098686682366885,0.9450871180307591,8.531648326723646
-4.912814973916285,0.9296499513601486,5.459306205132477
-4.915712743571624,0.9142036002376829,10.307189303926954
-4.918561948574264,0.8987482172651768,11.944728176135214
-4.921362560775563,0.8832839551336762,4.126217864337505
-4.924114552506947,0.8678109666219409,7.396784005371759
-4.926817896580187,0.8523294045949517,13.901291019286411
-4.929472566287667,0.8368394220023829,1.917236935611255
-4.932078535402649,0.8213411718771056,10.933193678958624
-4.934635778179532,0.8058348073336701,0.27449502992196617
-4.937144269354102,0.7903204815667861,10.290454107824923
-4.939603984143789,0.7747983478498226,18.31016352458137
-4.942014898247905,0.7592685595332871,2.705103326115099
-4.94437698784789,0.743731270043304,14.854061083599024
-4.946690229607543,0.7281866328801139,0.2051395109423959
-4.948954600673253,0.71263480161654,16.376665354641766
-4.9511700786742265,0.6970759298964858,0.29294194188593803
-4.953336641722709,0.6815101714334111,0.0880357196432624
-4.955454268414197,0.6659376800088063,8.329666794718882
-4.9575229378276555,0.6503586094706884,5.174838978377747
-4.95954262952572,0.6347731137320644,11.370090623252377
-4.961513323554901,0.619181346769425,0.7568635288455638
-4.963435000445778,0.6035834626212176,6.375304423341848
-4.9653076412131965,0.5879796153863175,11.440772917874325
-4.967131227356452,0.5723699592225185,12.94223645351063
-4.968905740859474,0.5567546483450039,2.070340257348049
-4.970631164191002,0.541133837024816,12.054376640408137
-4.9723074803047655,0.5255076795873469,15.350605857598623
-4.973934672639642,0.5098763304107973,5.1637367199492274
-4.975512725119828,0.4942399439246658,0.5104289754895852
-4.9770416221549985,0.47859867460821715,2.4134970754864415
-4.978521348640454,0.4629526769889491,5.976761628704268
-4.9799518899572774,0.4473021056410815,4.2290850537266556
-4.981333231972473,0.4316471151840115,17.808031125268972
-4.98266536103911,0.41598786028080104,12.218128695991055
-4.983948263996454,0.4003244956366428,14.96421381453933
-4.985181928170101,0.38465717599732485,18.041420116175285
-4.986366341372097,0.36898605614771496,14.87554510957195
-4.987501491901066,0.35331129091022534,17.26824452345628
-4.988587368542315,0.33763303514327575,4.0052284984224436
-4.9896239605679575,0.32195144373977963,10.142377395091152
-4.99061125773701,0.30626667162559573,16.47947349551308
-4.9915492502954955,0.2905788737580133,18.502861692139476
-4.992437928976543,0.2748882051242143,14.113508631706502
-4.993277285000473,0.25919482073973593,5.292395230461877
-4.994067310074892,0.24349887564695416,18.531394103896403
-4.994807996394768,0.2278005249135348,9.51909908330278
-4.99549933664251,0.21209992363091665,17.414873212683265
-4.996141323988041,0.1963972269127727,13.238199176269411
-4.996733952088864,0.18069258989347123,5.290340281523815
-4.997277215090124,0.16498616772655617,18.641143310035428
-4.99777110762467,0.1492781155832079,4.634118907475793
-4.998215624813104,0.13356858865070334,11.7905608732802
-4.998610762263832,0.11785774213089852,0.8428537555281967
-4.9989565160731,0.1021457312386774,13.28151210045622
-4.999252882825047,0.08643271120043394,11.380261348226231
-4.999499859591722,0.07071883725253197,10.355302218742292
-4.999697443933126,0.05500426463976482,19.14785419390594
-4.99984563389723,0.039289148613837165,3.0425965115894793
-4.999944428019996,0.0235736444318134,19.84880685662015
-4.9999938253253875,0.00785790735459938,19.980286536238296
-4.9999938253253875,-0.007857907354598155,9.67292166816058
-4.999944428019996,-0.023573644431812174,14.627007091577106
-4.99984563389723,-0.03928914861383372,0.5442600000688858
-4.999697443933126,-0.0550042646397636,15.150933148056636
-4.999499859591722,-0.07071883725253075,15.718247134135858
-4.999252882825047,-0.08643271120043272,4.168594409068334
-4.9989565160731,-0.10214573123867617,18.672507610452517
-4.998610762263832,-0.11785774213089731,4.06484173757031
-4.998215624813105,-0.13356858865070212,14.804244120044338
-4.99777110762467,-0.14927811558320664,19.836088808769368
-4.997277215090124,-0.16498616772655492,12.093623596990465
-4.996733952088864,-0.18069258989346998,15.801159516002759
-4.996141323988041,-0.19639722691277148,2.632073151965162
-4.99549933664251,-0.21209992363091543,6.9661265014716705
-4.994807996394768,-0.2278005249135336,11.344165470220084
-4.994067310074892,-0.24349887564695072,11.943232742048126
-4.993277285000473,-0.25919482073973465,7.997452080516528
-4.992437928976543,-0.2748882051242131,3.8733018264585373
-4.9915492502954955,-0.29057887375801206,3.7146136231284332
-4.99061125773701,-0.3062666716255945,1.9308365746728695
-4.9896239605679575,-0.32195144373977835,9.824445243330093
-4.988587368542315,-0.3376330351432746,16.8720285317284
-4.987501491901066,-0.35331129091022406,19.042253922831257
-4.986366341372098,-0.36898605614771374,7.070082463546388
-4.985181928170101,-0.3846571759973236,1.723819488802456
-4.983948263996454,-0.40032449563664163,14.255864542754555
-4.98266536103911,-0.4159878602807998,7.0911518449234485
-4.981333231972473,-0.43164711518401033,11.796669387911486
-4.9799518899572774,-0.44730210564107814,12.744760829489167
-4.978521348640454,-0.46295267698894793,16.00653326516866
-4.9770416221549985,-0.4785986746082159,9.079807072702458
-4.975512725119829,-0.4942399439246645,15.54219548290918
-4.973934672639642,-0.509876330410796,11.311542322548174
-4.9723074803047655,-0.5255076795873457,12.681995276980212
-4.970631164191003,-0.5411338370248147,9.062116908086676
-4.968905740859474,-0.5567546483450028,3.2930112008322543
-4.967131227356452,-0.5723699592225173,12.228605476243837
-4.965307641213197,-0.5879796153863163,19.97787877184119
-4.963435000445778,-0.6035834626212164,16.011988375034
-4.961513323554901,-0.6191813467694238,0.6962592457541517
-4.95954262952572,-0.6347731137320632,17.685189366192752
-4.957522937827656,-0.6503586094706849,18.19842934752732
-4.955454268414198,-0.665937680008805,14.631045435057416
-4.953336641722709,-0.68151017143341,8.553280719860425
-4.9511700786742265,-0.6970759298964846,3.258139522880792
-4.948954600673253,-0.7126348016165387,14.500692692037845
-4.946690229607543,-0.7281866328801125,7.642672977816596
-4.944376987847891,-0.7437312700433028,2.0377805920270164
-4.942014898247905,-0.7592685595332859,7.78507898217023
-4.939603984143789,-0.7747983478498213,12.45829783780245
-4.937144269354102,-0.7903204815667848,1.9997888708429579
-4.934635778179532,-0.805834807333669,3.7777137618362366
-4.93207853540265,-0.8213411718771045,6.306522031709756
-4.929472566287667,-0.8368394220023817,7.083987150662914
-4.926817896580188,-0.8523294045949483,6.845031410401747
-4.924114552506947,-0.8678109666219397,18.732512465691023
-4.921362560775563,-0.8832839551336751,17.029880195926626
-4.918561948574265,-0.8987482172651757,8.656645117109514
-4.915712743571624,-0.9142036002376817,16.235130494413273
-4.912814973916286,-0.9296499513601453,4.346755908018225
-4.9098686682366885,-0.9450871180307578,19.375826992604416
-4.9068738556407805,-0.9605149477384416,2.463686414341615
-4.903830565715733,-0.9759332880643629,7.82571955618534
-4.900738828527645,-0.9913419866834449,13.653233152155726
-4.897598674621255,-1.006740891365859,15.552139535475737
-4.894410135019628,-1.022129849978536,15.890605922266278
-4.891173241223855,-1.0375087104866747,13.080913319355814
-4.887888025212744,-1.0528773209552296,19.621243843834016
-4.884554519442497,-1.0682355295504278,3.3461801483518605
-4.881172756846394,-1.0835831845412565,16.561596555175623
-4.877742770834471,-1.0989201343009656,1.4279245574349742
-4.874264595293182,-1.1142462273085743,16.015178705774556
-4.87073826458507,-1.129561312150352,8.773436628295844
-4.867163813548422,-1.1448652375213317,10.892529618021156
-4.863541277496935,-1.1601578522267892,6.339486412336475
-4.859870692219356,-1.1754390051837442,3.322795539580281
-4.8561520939791345,-1.1907085454224584,10.641134975814712
-4.852385519514061,-1.205966322087915,6.546771733857948
-4.848571006035909,-1.2212121844413155,6.708741045816522
-4.844708591230062,-1.2364459818615738,3.8374566300648483
-4.840798313255143,-1.2516675638467911,11.184199143159464
