4.977800950856897,0.47063541478322,7.436180447698946
4.977205482914588,0.476891581855833,14.55225195787152
4.976602152140634,0.48314699555022317,15.017882946767882
4.975990959488158,0.4894016459842859,17.39560255601739
4.9753719059227,0.49565552327712253,11.797191345105265
4.974744992422224,0.5019086175490559,15.349039949867036
4.974110219977107,0.5081609189216453,5.844954954049828
4.973467589590143,0.5144124175177032,19.631418769139973
4.972817102276539,0.52066310346131,10.50702946305738
4.972158759063914,0.5269129668778298,1.2246592479209295
4.9714925609922975,0.5331619978939266,7.598278818104434
4.970818509114129,0.5394101866375787,6.570383410225384
4.970136604494254,0.5456575232380954,14.427577668844044
4.969446848209922,0.5519039978261322,17.990325791837964
4.968749241350791,0.5581496005337062,10.486101489635654
4.968043785018917,0.5643943214942122,4.650372157020362
4.967330480328757,0.5706381508424374,0.47784611041878033
4.966609328407168,0.5768810787145783,19.549458260393685
4.965880330393403,0.5831230952482547,12.232407782608556
4.96514348743911,0.5893641905825266,2.0717599917420393
4.964398800708329,0.5956043548579093,10.458775509987898
4.963646271377494,0.6018435782163888,12.045777317785333
4.962885900635426,0.6080818508014375,2.5934680272406885
4.9621176896833346,0.61431916275803,0.5645194215490368
4.961341639734816,0.6205555042326582,5.046982587746238
4.960557752015849,0.6267908653733473,14.113773015706695
4.959766027764794,0.6330252363296712,0.25224610658027835
4.9589664682323935,0.639258607252768,14.654230963013486
4.958159074681764,0.6454909682953558,14.613875392535574
4.957343848388402,0.6517223096117479,19.850327950372424
4.956520790640175,0.6579526213578685,13.668137616168961
4.955689902737325,0.6641818936912685,11.369531994715555
4.954851185992462,0.6704101167711403,7.542898927655317
4.954004641730563,0.6766372807583345,15.756680073927482
4.9531502712889734,0.6828633758153748,0.8116996222725303
4.9522880760174,0.689088392106473,12.866260602422969
4.951418057277911,0.6953123197975458,16.482780064496335
4.950540216444934,0.7015351490562289,11.766496770065633
4.949654554905256,0.7077568700518939,9.688856747148687
4.948761074058016,0.7139774729556629,14.855251417493795
4.947859775314706,0.7201969479404242,0.927571439054391
4.946950660099171,0.7264152851808483,15.368766098863594
4.946033729847602,0.732632474853403,4.432296564620923
4.945108986008535,0.7388485071363686,7.669028188283642
4.944176430042852,0.7450633722098544,10.530438507473308
4.943236063423775,0.7512770602558132,11.527670756571602
4.9422878876368666,0.7574895614580572,14.306388643627603
4.941331904180023,0.7637008660022738,18.67523130944647
4.940368114563479,0.7699109640760406,3.4863335086684444
4.9393965203097965,0.7761198458688416,8.7874902287654
4.9384171229538705,0.7823275015720816,18.07051819670516
4.937429924042922,0.7885339213791029,7.890236297132713
4.9364349251364965,0.7947390954851997,1.5198942069999966
4.935432127806461,0.8009430140876348,6.177214088433121
4.934421533637004,0.8071456673856535,5.373552411251017
4.933403144224631,0.8133470455805009,12.821640204386721
4.932376961178159,0.8195471388754358,17.414534086907317
4.93134298611872,0.8257459374757472,17.45657853684221
4.930301220679757,0.8319434315887695,16.47691180676201
4.9292516665070165,0.8381396114238973,5.535806032787329
4.928194325258551,0.8443344671926023,16.054606795847157
4.927129198604715,0.8505279891084473,18.481765311308408
4.926056288228161,0.8567201673871023,4.840123084311609
4.924975595823841,0.8629109922463606,4.915778991629683
4.923887123098997,0.8691004539061522,6.937572473119111
4.922790871773165,0.8752885425885625,8.695472879581189
4.921686843578165,0.8814752485178444,5.125498281008745
4.920575040258109,0.8876605619204356,11.478960352637205
4.919455463569388,0.8938444730249742,15.974549536013496
4.918328115280674,0.9000269720623132,17.7663063415806
4.917192997172915,0.906208049265536,15.88678354220029
4.916050111039335,0.9123876948699727,12.312503240187793
4.91489945868543,0.918565899113215,5.160455486204231
4.913741041928963,0.9247426522351311,0.29733893546014745
4.912574862599966,0.9309179444778823,19.00583720081006
4.9114009225407305,0.937091766085937,8.242301074994945
4.910219223605811,0.9432641073060879,7.612733414512278
4.909029767662016,0.9494349583874653,0.8671417002974313
4.9078325565884136,0.9556043095815542,6.84036306122159
4.906627592276317,0.9617721511422088,12.762702992704911
4.905414876629292,0.9679384733256682,3.682426384368278
4.904194411563148,0.9741032663905722,1.395084766172472
4.902966199005939,0.9802665205979755,8.811721367901153
4.901730240897953,0.9864282262113643,17.457823904131747
4.900486539191719,0.9925883734966712,0.3531686828137337
4.899235095851998,0.9987469527222907,17.273737524846595
4.89797591285578,1.004903954159094,9.844194697835851
4.896708992192283,1.0110593680804456,16.549174198602188
4.895434335862949,1.0172131847622172,5.820267644635065
4.894151945881437,1.0233653944828038,6.802929435443257
4.892861824273628,1.0295159875231399,14.749523817464041
4.891563973077615,1.0356649541667124,9.733098676582783
4.890258394343702,1.0418122846995794,1.6057638462701118
4.888945090134401,1.0479579694103824,11.803062378414284
4.887624062524429,1.054101998590363,15.219629072500574
4.886295313600702,1.0602443625333788,19.47687784181565
4.8849588454623385,1.0663850515359174,17.082095909677506
4.883614660220645,1.072524055897113,17.256284205405436
4.882262759999125,1.0786613659187607,1.9957750674128438
4.880903146933467,1.0847969719053325,8.835781132315002
4.879535823171545,1.0909308641639923,16.98565761373172
4.878160790873413,1.0970630330046114,8.305242651441368
4.8767780522113044,1.1031934687397833,6.874037357390447
4.875387609369626,1.10932216168484,2.6026577126159323
4.873989464544954,1.1154491021578663,1.4768495045763785
4.8725836199460355,1.1215742804797157,2.3986199788787155
4.871170077793777,1.1276976869740254,0.2540329411347564
4.869748840321249,1.1338193119672315,1.5270447545143728
4.868319909773678,1.1399391457885848,12.370526428663531
4.866883288408442,1.1460571787701657,6.312506930604133
4.86543897849507,1.1521734012468992,19.07855223271239
4.863986982315238,1.1582878035565707,7.398452444071721
4.862527302162763,1.164400376039841,12.37648200287362
4.861059940343601,1.1705111090402618,6.605398120525898
4.859584899175845,1.1766199929042902,16.228195135518146
4.858102180989717,1.1827270179813052,4.842104939612679
4.85661178812757,1.1888321746236217,2.9053641342121717
4.855113722943877,1.1949354531865068,10.662379609504777
4.853607987805236,1.201036844028194,12.175262034270432
4.852094585090359,1.2071363375098996,4.055475015329833
4.850573517190072,1.213233923995836,3.054919689800164
4.849044786507309,1.2193295938532303,3.906251956663336
4.847508395457111,1.2254233374523356,11.101546167815837
4.845964346466621,1.2315151451664486,11.421689694217218
4.844412641975076,1.2376050073719245,14.048094055463704
4.842853284433812,1.243692914448192,2.2690793510178464
4.841286276306252,1.249778856777768,6.387277455526775
4.839711620067906,1.2558628247462733,13.773436574650619
4.838129318206365,1.2619448087424483,12.709998495164834
4.836539373221301,1.268024799158167,19.615589505770505
4.834941787624457,1.274102786388453,14.395896642044022
4.83333656393965,1.280178760831495,18.781648857009266
4.83172370470276,1.2862527128886603,17.62134641979356
4.830103212461731,1.292324632964512,2.9662086087987993
4.828475089776568,1.298394511466823,18.715336373569585
4.826839339219323,1.3044623388065915,0.4107537156000918
4.8251959633741075,1.3105281053980558,2.5983522845521434
4.8235449648370725,1.3165918016587097,19.30937593500217
4.821886346216413,1.3226534180093181,9.00012245850947
4.820220110132362,1.3287129448739314,10.892767557187566
4.818546259217188,1.3347703726799012,17.24252768272552
4.816864796115187,1.3408256918578945,18.788286164730668
4.81517572348268,1.3468788928419095,19.437834125140313
4.813479043988012,1.3529299660692913,8.887064097985327
4.811774760311543,1.3589789019807457,12.461376998295073
4.810062875145647,1.3650256910203553,3.145521663977764
4.808343391194704,1.3710703236355948,7.088575964953419
4.806616311175102,1.3771127902773443,7.452656670703366
4.804881637815227,1.383153081399907,11.171981488979121
4.803139373855462,1.389191187461021,12.431745563605752
4.801389522048179,1.3952270989218787,7.470065372186443
4.7996320851577385,1.4012608062471377,17.149204787872595
4.797867065960484,1.4072922999049384,3.299342575354296
4.796094467244738,1.4133215703669177,6.953742534564147
4.794314291810795,1.4193486081082252,17.61753642684902
4.792526542470919,1.425373403607538,7.591236175971767
4.790731222049341,1.431395947347074,10.326405604634086
4.788928333382251,1.4374162298126103,16.692212024948823
4.787117879317795,1.4434342414934944,11.271934595770745
4.785299862716071,1.4494499728826626,17.720653319340343
4.783474286449125,1.4554634144766523,18.344885080161784
4.781641153400944,1.461474556775619,18.554794775047114
4.779800466467453,1.4674833902833508,3.6935618211430965
4.7779522285565115,1.4734899055072825,7.704550246335593
4.776096442587908,1.4794940929585114,11.6465037135515
4.774233111493354,1.4854959431518129,11.718302343199165
4.77236223821648,1.4914954466056531,16.06903267453721
4.770483825712832,1.497492593842207,14.504847043250273
4.768597876949869,1.5034873753873712,1.3867430382914336
4.7667043949069505,1.5094797817707795,1.8378947806855384
4.764803382575342,1.5154698035258176,7.501743654952335
4.7628948429582,1.5214574311896394,7.487192245355468
4.7609787790705775,1.5274426553031806,17.008814717659632
4.75905519393941,1.5334254664111726,11.731440723999016
4.757124090603517,1.5394058550621605,5.37904110205403
4.7551854721135935,1.545383811808516,6.425368900880873
4.7532393415322085,1.551359327206451,15.855637066396852
4.7512857019337975,1.5573323918160364,17.430371768537377
4.749324556404659,1.5633029962012142,9.23776017179529
4.747355908042946,1.5692711309298115,2.906568177816955
4.745379759958671,1.575236786573559,12.327142621009585
4.743396115273686,1.5811999537081023,18.233889381638093
4.741404977121693,1.5871606229130186,14.608245483803286
4.739406348648227,1.593118784771832,6.648422568053578
4.73740023301066,1.5990744298720267,7.348327447026097
4.735386633378188,1.6050275488050627,6.622909849984415
4.733365552931834,1.6109781321663916,13.652528782136176
4.731336994864435,1.6169261705554705,17.99076059694517
4.729300962380644,1.6228716545757762,4.211480573676775
4.727257458696919,1.6288145748348215,9.519594590422058
4.725206487041525,1.634754921944169,12.123756205089961
4.723148050654521,1.6406926865194467,7.991654812706717
4.7210821527877584,1.6466278591803611,7.508327920101616
4.7190087967048795,1.6525604305507156,13.193129336955337
4.716927985681305,1.6584903912584212,5.894306777655642
4.714839723004234,1.6644177319355138,7.741674862460625
4.712744011972639,1.6703424432181686,1.4136242621721196
4.710640855897256,1.6762645157467135,9.69725621179709
4.708530258100588,1.6821839401656464,19.508467161945592
4.706412221916886,1.6881007071236476,1.0500111333111972
4.70428675069216,1.6940148072735963,13.399688511800584
4.70215384778416,1.6999262312725847,17.48527709917585
4.700013516562381,1.705834969781931,13.561212725230131
4.697865760408048,1.7117410134671986,17.478665313482043
4.69571058271412,1.7176443529982064,11.47275343613732
4.693547986885276,1.723544979049045,0.6417320199005094
4.691377976337919,1.729442882298092,3.744668771012578
4.689200554500162,1.7353380534280274,12.7133100483709
4.687015724811826,1.7412304831258458,3.528953347153043
4.684823490724439,1.7471201620828736,6.051143537929475
4.682623855701219,1.7530070809947822,1.1858109892126834
4.680416823217082,1.7588912305616042,19.997649731479132
4.678202396758628,1.7647726014877456,19.79673363699156
4.675980579824138,1.7706511844820034,4.760755837553812
4.673751375923566,1.7765269702575774,11.818453101549292
4.67151478857854,1.7823999495320886,6.406779306750854
4.66927082132235,1.788270113027589,13.787260579895658
4.667019477699943,1.794137451470581,10.446640658173385
4.664760761267921,1.8000019555920286,0.0875175153676433
4.662494675594532,1.805863616127374,3.373930480466152
4.660221224259668,1.8117224238165517,17.572975929655904
4.657940410854854,1.8175783694040024,5.501363911253687
4.655652238983247,1.8234314436386891,10.45487064884524
4.6533567122596295,1.8292816372741103,18.055910258432533
4.651053834310401,1.8351289410683147,7.432128418814969
4.648743608773575,1.8409733457839175,3.08957093292896
4.646426039298774,1.8468148421881134,18.477318710671533
4.644101129547219,1.8526534210526906,7.108490469478463
4.641768883191731,1.858489073154048,4.521726769802477
4.6394293039167165,1.8643217892732062,14.68787201926502
4.637082395418171,1.8701515601958252,8.79150910833581
4.634728161403665,1.8759783767122178,5.560853638335972
4.632366605592343,1.8818022296173638,16.31331992271942
4.629997731714916,1.8876231097109242,9.338824162981748
4.627621543513656,1.8934410077972568,16.881076172868518
4.62523804474239,1.8992559146854313,14.711753555388526
4.622847239166495,1.9050678211892413,14.383116048323162
4.620449130562887,1.910876718127221,15.73731055663935
4.618043722720025,1.916682596322659,11.162875271166206
4.615631019437895,1.9224854466036128,5.33313562260981
4.61321102452801,1.928285259802923,15.786065248127057
4.610783741813401,1.9340820267582282,2.7648538262287925
4.608349175128611,1.93987573831198,10.169316416397365
4.605907328319693,1.9456663853114557,18.65316519273877
4.603458205244198,1.9514539586087754,8.443101491550184
4.601001809771176,1.9572384490609132,19.457319108405112
4.598538145781158,1.9630198475297145,7.840268343058496
4.596067217166167,1.9687981448819092,9.216322797103837
4.593589027829695,1.9745733319891257,6.327793405193223
4.591103581686708,1.9803453997279066,14.533632802926572
4.588610882663636,1.9861143389797218,15.087029701977013
4.586110934698363,1.9918801406309836,7.698072211134159
4.583603741740231,1.9976427955730616,2.556451752281008
4.581089307750022,2.003402294702296,10.138699011317733
4.578567636699961,2.0091586289200114,7.191260071862448
4.576038732573702,2.014911789132534,4.771645666479913
4.5735025993663285,2.020661766251204,9.1747301300171
4.570959241084345,2.026408551192388,6.061750697458597
4.568408661745666,2.032152134877499,6.20704682465383
4.565850865379617,2.037892508233004,0.6009415008717744
4.5632858560269245,2.043629662190443,8.724016529065743
4.560713637739707,2.0493635876864422,8.927365939432239
4.558134214581476,2.055094275662728,7.203922880419711
4.555547590627121,2.0608217170661405,1.4722839024529422
4.552953769962909,2.0665459028486484,11.439140113344957
4.550352756686475,2.0722668239673654,2.1542461996685214
4.54774455490682,2.0779844713845605,5.3438156518990665
4.545129168744295,2.0836988360676765,14.747394183969295
4.542506602330607,2.08940990898934,11.184469102167629
4.539876859808802,2.095117681127379,16.209094878301528
4.5372399453332655,2.1008221434648364,16.131056843635182
4.534595863069709,2.106523286989982,9.952531476140729
4.5319446171951725,2.112221102696331,16.78741325913684
4.529286211898008,2.117915581582653,13.544957171062455
4.526620651377883,2.1236067146529924,10.795283571805673
4.523947939845762,2.1292944929166766,12.640419166973196
4.521268081523912,2.1349789073883327,3.447104118238904
4.518581080645889,2.140659949087904,5.698351985469257
4.5158869414565315,2.14633760904066,5.830072600616787
4.513185668211953,2.152011878277213,4.511127533902998
4.510477265179543,2.157682747833533,3.695504426227121
4.507761736637949,2.163350208750959,17.489803735255155
4.505039086877078,2.169014252076216,15.974740790475995
4.502309320198084,2.1746748688614277,17.73359504414211
4.499572440913368,2.1803320501641306,2.7661411627645727
4.496828453346563,2.185985787047289,7.97903633580445
4.494077361832536,2.1916360705793085,19.124752846673477
4.491319170717373,2.1972828918340506,5.712855208393053
4.488553884358378,2.2029262418908444,17.081440183906235
4.485781507124061,2.208566111834505,0.999732668435882
4.483002043394138,2.2142024927553443,2.172131074934376
4.4802154975595165,2.2198353757491867,1.064768871210453
4.477421874022294,2.2254647519173814,14.9962971613759
4.474621177195747,2.231090612366818,4.2269393726983555
4.47181341150433,2.236712948209941,1.3983597922082303
4.46899858138366,2.2423317505647615,19.693932953205746
4.466176691280519,2.247947010554874,12.929746573322108
4.463347745652838,2.253558719309468,1.043608166432124
4.460511748969696,2.2591668679633434,3.030545931089812
4.457668705711311,2.264771447656926,5.705863274607728
4.454818620369032,2.2703724495362767,5.307280940407749
4.4519614974453345,2.275969864753111,19.063760205244897
4.449097341453811,2.2815636844648086,15.833337725414847
4.446226156919163,2.2871538998344314,1.297313436758687
4.443347948377198,2.2927405020307337,9.402459800535548
4.4404627203748195,2.2983234822281773,4.197249424685399
4.437570477470018,2.303902831606948,7.109938729261424
4.434671224231868,2.309478541352966,12.303931951576994
4.431764965240518,2.315050602657901,15.814331079643223
4.428851705087183,2.320619006719188,1.4929769787359848
4.42593144837414,2.326183744740038,9.393026388657129
4.423004199714718,2.331744807929454,13.725857996891161
4.420069963733292,2.337302187502244,11.381914352770284
4.417128745065274,2.342855874679037,0.1688737679301977
4.41418054835711,2.348405860686292,18.16392312921633
4.411225378266266,2.3539521367563183,0.8491872640573006
4.408263239461228,2.359494694127284,2.5162298170105046
4.405294136621486,2.3650335240432327,3.6152856481811813
4.402318074437538,2.370568617754096,1.7028421466246435
4.399335057610872,2.376099966515708,19.68104560112983
4.396345090853962,2.381627561589819,8.444185899784157
4.393348178890265,2.3871513942441096,8.634239208525942
4.390344326454205,2.392671455752204,13.853565534544177
4.387333538291175,2.3981877373936835,2.8396791753042305
4.384315819157523,2.403700230454101,3.354563856164494
4.381291173820545,2.4092089262249945,14.65395580713162
4.37825960705848,2.4147138160039012,3.932556032938934
4.375221123660502,2.42021489109437,2.584636210254345
4.37217572842671,2.4257121428059767,5.812752361158955
4.369123426168125,2.431205562454337,10.33859778908041
4.366064221706674,2.436695141361121,12.57610360750742
4.3629981198751935,2.4421808708540653,5.991050082711295
4.359925125517415,2.4476627422669885,19.123627091717946
4.356845243487956,2.4531407469398023,14.19699199619309
4.353758478652318,2.4586148762185305,5.921681293625262
4.350664835886872,2.4640851214553154,2.4706485844325488
4.347564320078859,2.469551474008438,9.860046352096186
4.344456936126376,2.4750139252423264,3.336348258980326
4.341342688938367,2.4804724665275737,12.689680302546664
4.338221583434625,2.485927089240949,16.518072141924534
4.33509362454577,2.491377784765412,4.488567651171989
4.3319588172132555,2.496824544490127,7.471349565697847
4.328817166389349,2.502267359810475,17.08206379313014
4.325668677037132,2.507706222128068,8.632906783731489
4.322513354130487,2.513141122850765,8.283830334830792
4.319351202654095,2.5185720533926803,7.228096367952475
4.316182227603421,2.523999005174203,6.564052520676988
4.313006433984713,2.529421969622006,19.607703750169957
4.309823826814988,2.5348409381690615,13.764289920430103
4.306634411122029,2.5402559022546556,1.2838725741764145
4.303438191944374,2.5456668533243976,6.411964574341158
4.300235174331307,2.5510737828302403,4.744106674698503
4.297025363342856,2.5564766822304867,0.6093162763009574
4.293808764049778,2.561875542989807,12.237459473000346
4.290585381533554,2.567270356579253,11.609644807257204
4.287355220886383,2.5726611144762677,13.690289430659481
4.28411828721117,2.578047808164704,10.14550711698082
4.28087458562152,2.583430429134832,6.671651134449013
4.27762412124173,2.5888089688833587,14.2760446991317
4.274366899206781,2.5941834189134374,15.378515387102986
4.27110292466233,2.5995537707346807,19.300193586623735
4.267832202764699,2.6049200158631787,10.478114793076074
4.2645547386808715,2.6102821458215053,11.7270473085968
4.261270537588483,2.615640152138739,10.474978210499073
4.257979604675809,2.62099402635047,4.70132284260232
4.25468194514176,2.6263437599988175,14.174062348941527
4.251377564195876,2.6316893446324423,2.7080661752038915
4.248066467058314,2.6370307718065584,2.204512953666522
4.244748658959839,2.6423680330829487,15.943758847708288
4.241424145141819,2.6477011200299767,5.7495041944287735
4.238092930856216,2.6530300242226,9.621009837930243
4.234755021365578,2.658354737242385,9.727768659750469
4.231410421943026,2.6636752506775183,6.5961258968713254
4.228059137872256,2.6689915561228217,1.6751350428553269
4.2247011744475165,2.6743036451797635,7.924366551950895
4.221336536973616,2.6796115094564743,18.113385317253638
4.217965230765898,2.684915140567758,1.6007502834125709
4.214587261150249,2.6902145301351057,17.83264506423383
4.211202633463076,2.695509669786709,2.0351271044058405
4.207811353051308,2.7008005511574757,16.149969114098734
4.2044134252723815,2.7060871658890373,18.84785189952558
4.201008855494236,2.7113695056297678,13.114920179496597
4.197597649095303,2.7166475620347934,9.140294147544763
4.1941798114644975,2.721921326766009,8.775865225644733
4.190755348001211,2.727190791492088,15.79442342526633
4.187324264115305,2.7324559478884956,5.985621106141654
4.183886565227095,2.7377167876375057,2.29707305346605
4.180442256767349,2.7429733024282092,0.8544296111704819
4.176991344177276,2.7482254839565305,10.401326422254238
4.17353383290852,2.753473323925241,1.0748194449512383
4.170069728423147,2.758716814043967,15.308310900148763
4.16659903619364,2.7639559460292107,14.452228876812999
4.163121761702888,2.7691907116043564,0.8866882783376728
4.15963791044418,2.774421102499687,17.545180950458175
4.156147487921192,2.779647110452397,16.83603468989757
4.152650499647986,2.7848687272066046,11.943015469672789
4.149146951148991,2.790085944513364,11.010375766972714
4.145636847959003,2.7952987541306817,2.2930168087159952
4.142120195623172,2.8005071478235255,15.529136592543162
4.138596999696993,2.80571111736384,4.234166784088158
4.135067265746301,2.810910654530559,3.831073502302198
4.131530999347256,2.8161057511096184,8.575957325299704
4.127988206086341,2.8212963988939683,18.018813180806465
4.124438891560349,2.8264825896835886,10.516300919245726
4.120883061376373,2.8316643152854986,15.257663825967285
4.117320721151803,2.836841567513773,0.23667751147955052
4.11375187651431,2.8420143381895526,8.740043207245902
4.110176533101841,2.847182619141057,11.854073078431092
4.106594696562612,2.8523464022036005,8.444799965002264
4.103006372555095,2.857505679219602,6.314457073860287
4.09941156674801,2.862660442038598,7.406752663537679
4.095810284820318,2.8678106825172596,13.707073765169596
4.092202532461208,2.8729563925193973,12.379432701548634
4.088588315370096,2.878097563915984,4.622512067605311
4.084967639256606,2.883234188585157,11.10218955732467
4.081340509840568,2.8883662584122414,13.863718466276326
4.0777069328520055,2.893493765289756,17.208780935620045
4.074066914031129,2.8986167011174264,12.996888586788115
4.070420459128325,2.9037350578022014,0.13690128355593467
4.066767573904148,2.908848827258263,4.773293328335326
4.063108264129309,2.9139580014070403,0.05284363220252164
4.059442535584671,2.919062572177222,3.1640365846327523
4.055770394061236,2.9241625315047677,11.203956463908543
4.052091845360135,2.9292578713329243,10.855631900939235
4.048406895292625,2.9343485836122345,4.305098530286373
4.044715549680073,2.939434660300553,4.030665212993123
4.041017814353949,2.944516093363056,3.863415471813736
4.037313695155818,2.9495928747722573,13.481020032895808
4.033603197937333,2.9546649965080176,19.69314500558179
4.029886328560217,2.959732450557559,14.416288034908833
4.0261630928962635,2.9647952289154795,8.417380531154189
4.022433496827323,2.9698533235837616,0.4650528565947143
4.018697546245292,2.9749067265717875,4.151092955557059
4.014955247052108,2.979955429896351,16.09163823096893
4.011206605159737,2.9849994255816705,0.27368467241647876
4.007451626490163,2.990038705659401,14.292432317292246
4.003690316975384,2.9950732621686478,17.11746977838794
3.999922682557398,3.0001030871559777,3.2585856148834558
3.9961487291881936,3.0051281726754326,7.989375192600027
3.9923684628297433,3.0101485107885413,15.991164117593488
3.988581889453992,3.0151640935643327,7.6603255762417755
3.9847890150428484,3.0201749130793476,12.537322568568097
3.980989845588176,3.025180961417653,5.235313504164063
3.977184387091781,3.030182230670851,8.192995566299802
3.9733726455654077,3.0351787129380945,12.529243703258452
3.9695546270307247,3.040170400326101,4.631710750389142
3.9657303375193163,3.0451572849491586,15.51989007230154
3.9618997830726737,3.0501393589291457,19.5466175048671
3.958062969742185,3.0551166143955406,12.87624912564348
3.9542199035891286,3.060089043485431,5.559206663760774
3.950370590684657,3.0650566383435325,3.805104050182928
3.946515037109793,3.0700193911221945,12.814281897465591
3.9426532489554185,3.074977293981418,12.273267241216416
3.938785232322264,3.079930339088865,17.228885458695192
3.9349109933208997,3.0848785186198713,3.39487955040062
3.931030538071725,3.08982182475746,13.834880654001884
3.9271438727049626,3.094760249692352,15.500571022037324
3.9232510033606403,3.099693785622981,10.80632617113836
3.9193519361885922,3.104622424755502,6.785092132521882
3.91544667734844,3.1095461593038074,18.823464014225834
3.9115352330095883,3.1144649814895375,0.2230930056538849
3.907617609351213,3.119378883542092,14.136927223537166
3.9036938125622522,3.1242878576986444,7.239885716871461
3.8997638488413955,3.1291918962041536,7.7201466842947415
3.8958277243970754,3.1340909913113735,8.00890854049501
3.891885445447456,3.1389851352808695,10.924067063001111
3.887937018220425,3.1438743203810278,2.6910632938125456
3.883982448953584,3.148758538888068,3.6546520338947097
3.880021743894235,3.153637783086057,1.0481301451737401
3.8760549092993744,3.158512045266919,18.287846339003956
3.8720819514356823,3.1633813177304493,4.592871438623527
3.868102876579513,3.168245592784325,2.4960458531635066
3.8641176910168804,3.1731048627441187,4.14496161488046
3.860126401043456,3.1779591199333095,16.466288185203783
3.8561290129645536,3.182808356683295,11.196708540664424
3.85212553309512,3.1876525653334054,6.573782976635412
3.8481159677597256,3.192491738230912,6.402411095658707
3.8441003232925546,3.197325867731044,18.249775474168416
3.8400786060373964,3.202154946196996,12.42475893786944
3.8360508223476315,3.206978965999943,13.330046569067061
3.832016978586225,3.211797919519051,1.7410848715794525
3.8279770811257148,3.21661179914149,3.5147199232876014
3.8239311363482047,3.221420597262445,17.80540429556505
3.8198791506453493,3.226224306285129,11.692580734874252
3.815821130418348,3.2310229186207957,10.775044701265664
3.811757082077931,3.235816426688748,3.7929590521807777
3.8076870120443553,3.2406048229163535,4.0454939961896175
3.803610926747387,3.2453880997390567,2.006707291049241
3.7995288326262977,3.2501662496003867,1.0875444314474736
3.7954407361298506,3.254939264951975,14.903429882972272
3.791346643716289,3.259707138253562,3.0020898068770996
3.7872465618533333,3.2644698619730135,16.319967737926614
3.7831404970181612,3.269227428586328,5.012192814690819
3.779028455697406,3.2739798305776535,4.662811162907983
3.774910444387137,3.278727060439296,16.51977095879652
3.7707864695928612,3.2834691106717306,14.152568497150602
3.766656537829502,3.2882059737836182,4.823074550144984
3.762520655621395,3.292937642291811,1.1183259363302556
3.7583788295022753,3.29766410872137,2.4191647134428185
3.75423106601527,3.3023853656055726,7.089434162287851
3.7500773717128837,3.3071014054859265,7.0093468690192084
3.7459177531569914,3.3118122209121816,14.487623741396774
3.7417522169188273,3.3165178044423405,16.432748569169412
3.7375807695789733,3.321218148642671,0.37481187001571437
3.7334034177273487,3.3259132460877194,10.141848903467835
3.7292201679632035,3.3306030893603182,2.0697389704023883
3.725031026895102,3.335287671051602,11.774601019081663
3.7208360011409174,3.339966983761017,6.752354427515184
3.7166350973278184,3.344641020096333,5.525108262016856
3.7124283220922596,3.3493097726736556,6.491394923290086
3.7082156820799717,3.3539732341174355,19.239522172304838
3.703997183945949,3.358631397060487,9.155685092492565
3.6997728343544427,3.3632842541439896,8.873610141593932
3.695542639978946,3.3679317980175076,3.9286430026733443
3.6913066075021854,3.3725740213389988,4.196153829833438
3.687064743616112,3.3772109167748257,3.2072083467763868
3.682817055021887,3.381842476999766,4.672810050007774
3.6785635484298753,3.3864686946970304,19.422123357708326
3.6743042305596307,3.391089562558264,3.1027148639522006
3.6700391081398904,3.395705073283567,9.578938415242924
3.6657681879085584,3.4003152195815023,8.565875261882706
3.6614914766127002,3.404919994169106,12.981300962169946
3.6572089810085284,3.409519389771902,2.634422717399889
3.652920707861394,3.4141133991239085,13.203218127286089
3.6486266639457754,3.418702014967657,1.617459009908988
3.6443268560452675,3.423285230054197,14.500665010017622
3.640021290952569,3.4278630371431107,10.99508450263091
3.635709975469478,3.4324354290025223,4.878015181449142
3.6313929164068712,3.437002398409113,6.0438029055452835
3.6270701205847047,3.441563938148129,4.108891279885059
3.6227415948319925,3.4461200410133936,12.018886117332174
3.618407345986803,3.45067069980732,4.16469163439626
3.614067380896246,3.4552159073409214,2.9114120037934943
3.6097217064164604,3.459755656433823,12.887627209544663
3.6053703294126054,3.4642899399142735,12.486290073863515
3.601013256758848,3.468818750619155,1.943274101904322
3.5966504953383542,3.473342081393995,14.621548685869815
3.5922820520432768,3.477859925092979,19.450798408527913
3.5879079337747433,3.482372274578962,18.166350925183096
3.5835281474428475,3.486879122723475,6.123254679804426
3.5791426999666376,3.4913804624067435,12.151444096265765
3.574751598274104,3.4958762865176936,10.350441886572916
3.5703548493021713,3.500366587953963,13.513898074655092
3.5659524599966836,3.504851359621917,7.2693547470712865
3.5615444373123957,3.5093305944366557,7.5309053694592
3.5571307882129624,3.513804285322025,6.678182868804717
3.5527115196709276,3.51827242521063,13.338347762097825
3.5482866386677108,3.522735007043845,4.116585391989991
3.5438561521936,3.527192023771824,7.20010964664346
3.5394200672477365,3.531643468353513,14.356121976151694
3.5349783908381074,3.5360893337566606,15.259126619195747
3.530531129981532,3.5405296129578305,14.48328839781694
3.5260782917036533,3.544964298942409,16.420549625105163
3.5216198830389227,3.5493933847046204,0.9096848888591613
3.5171559110305943,3.553816863247535,14.236144175857193
3.5126863827307098,3.558234727583081,0.5397279339064709
3.5082113052000876,3.562646970732057,9.535606828119212
3.503730685508314,3.56705358572414,10.386890323124407
3.4992445307337294,3.5714545655978993,10.23495476577365
3.4947528479634205,3.5758499034008073,9.444092758213516
3.490255644293204,3.5802395921892476,2.944079554592036
3.485752926827621,3.584623625028529,8.541334316047944
3.481244702679922,3.5890019949928953,17.510357503201103
3.4767309789720557,3.593374695165536,5.416967998966335
3.472211762834661,3.597741718638598,18.78617071225708
3.467687061407052,3.6021030585131957,7.938054348652592
3.463156881837209,3.606458707899423,1.8419317096760124
3.4586212312817666,3.6108086599163625,0.13368555416628292
3.4540801169060007,3.615152907692098,14.139606605093238
3.449533545883821,3.619491444363723,9.854293380463622
3.4449815253977567,3.6238242630773563,15.102058530731002
3.440424062638945,3.628151356988148,2.0614525827633723
3.435861164807121,3.6324727192602912,10.11363874186926
3.431292839110607,3.636788343067035,7.355578585767719
3.4267190927662994,3.6410982215906933,9.650286873941896
3.422139932999657,3.645402348022657,17.644570387548256
3.4175553670446925,3.6497007155634034,4.73481332608835
3.412965402143957,3.6539933174225068,9.034231432205855
3.408370045548532,3.6582801468186514,5.594461245651718
3.4037693045180175,3.66256119697964,19.942374962523097
3.399163186320517,3.6668364611424047,1.1704254905380362
3.3945516982326303,3.671105932553018,16.719256293548895
3.3899348475394415,3.675369604466705,11.548004528444991
3.385312641534504,3.6796274701478513,14.874193482830975
3.380685087519833,3.683879522870016,4.1008111523003254
3.3760521928058917,3.688125755915941,4.492753029551208
3.371413964711581,3.6923661625775606,10.337972099172365
3.366770410564226,3.696600736156015,7.7255657024972235
3.3621215376995672,3.7008294699616595,15.815051575646251
3.3574673534617467,3.7050523573140737,6.199517968606774
3.352807865203297,3.7092693915420742,8.73499043043196
3.34814308028513,3.7134805659837244,4.99592758825176
3.343473006076525,3.717685873986343,5.815965346275471
3.3387976499551186,3.7218853089065194,16.54343963371264
3.33411701930689,3.726078864110117,4.286174772182358
3.32943112152615,3.7302665329722915,15.17241393344152
3.3247399640155333,3.734448308877496,13.866299355160088
3.320043554185981,3.738624185219493,2.082878167815565
3.3153418994567336,3.7427941554013655,0.3052669459225954
3.310635007255315,3.7469582128355263,6.642709775480274
3.3059228850175253,3.7511163509437297,12.017864643340069
3.3012055401874263,3.75526856315708,14.409570068816615
3.2964829802173297,3.759414842916045,2.8939693705787817
3.291755212567786,3.763555183670463,18.280878695352232
3.2870222447075728,3.767689578879554,16.33346868403812
3.282284084113683,3.7718180220119315,5.504943397123167
3.2775407382713135,3.775940506545612,17.075620350642374
3.272792214673851,3.780057025968025,14.91238815579389
3.268038520822863,3.784167573776023,7.448748829981328
3.2632796642280844,3.7882721434758935,17.304745553522466
3.2585156524074055,3.7923707285833674,7.535947731513422
3.2537464928868634,3.7964633226236284,12.483310003692791
3.2489721932006232,3.8005499191313263,5.228976735607764
3.2441927608909733,3.8046305116505867,7.72865706687647
3.23940820350831,3.808705093735017,8.73715566786174
3.2346185286111244,3.812773658947722,1.0356557008297695
3.2298237437659942,3.816836200861313,8.695629751575067
3.2250238565475686,3.820892713057912,0.26352052107939006
3.220218874538557,3.8249431891291703,4.531305896512732
3.2154088053297185,3.8289876226762756,5.349728193614838
3.2105936565198476,3.8330260073099574,11.745224230955195
3.2057734357157646,3.837058336650505,13.659671065603096
3.2009481505323008,3.841084604327773,14.85778847186072
3.1961178085922892,3.8451048039811897,16.502608531988415
3.191282417526552,3.849118929259771,5.116725455244722
3.186441984973886,3.8531269738221297,15.817074705765839
3.181596518581053,3.857128931336484,18.52554914106866
3.176746026002768,3.8611247954806664,19.422695558638356
3.1718905149016856,3.8651145599421395,15.90857922137963
3.1670299929483887,3.8690982184179985,18.670316101463925
3.1621644678213756,3.8730757646149856,9.909786491633179
3.1572939472070494,3.8770471922495,9.638027024276067
3.152418438799703,3.8810124950476057,18.599119459662695
3.147537950301512,3.884971666745043,17.828053770657267
3.1426524894225167,3.8889247010872374,6.288056416495458
3.1377620638806136,3.8928715918293104,4.756444435621809
3.1328666814015422,3.8968123327360904,10.285773650073523
3.1279663497188723,3.9007469175821177,7.820969171264962
3.123061076573994,3.9046753401516603,13.804737149325994
3.1181508697161013,3.908597594238721,6.399818491126483
3.113235736902184,3.912513673647047,19.995577119077034
3.1083156858970136,3.91642357219014,14.917051109359996
3.1033907244731296,3.9203272836912664,7.121331161766824
3.0984608604108317,3.924224801983465,7.44571542990874
3.0935261014981625,3.9281161209095616,12.789931672691118
3.0885864555308973,3.932001234322172,9.483900099903602
3.0836419303125333,3.9358801360837186,9.814161169575517
3.0786925336542748,3.9397528200664347,1.1502968553005788
3.073738273375022,3.9436192801523755,8.204393592097253
3.0687791573013574,3.9474795102334315,7.1499221854999195
3.0638151932675366,3.9513335042113322,19.362274123395448
3.0588463891154727,3.9551812559976613,6.293664024704036
3.0538727526947245,3.9590227595138607,9.930662391000542
3.048894291862487,3.9628580086912457,0.04891960415345675
3.043911014483573,3.9666869974710113,2.6539624177160004
3.0389229284304076,3.970509719804242,19.551489351694332
3.0339300415830106,3.974326169651921,18.844638023954037
3.028932361828987,3.9781363409849435,14.066799081143984
3.0239298970635127,3.9819402277841203,6.031110524371597
3.018922655189323,3.985737824040192,3.0509806394134675
3.0139106441167014,3.989529123753836,11.2066870539194
3.008893871763463,3.9933141209356773,15.655870199756379
3.0038723460549455,3.997092809606296,13.346823757313551
2.9988460749239976,4.0008651837962415,12.106792309123849
2.9938150663109626,4.004631237546034,1.4009494045282134
2.9887793281636688,4.008390964906184,18.911444183626863
2.983738868437416,4.01214435993719,1.9726157347414386
2.9786936950949627,4.015891416709561,17.25498468159975
2.973643816106514,4.019632129303811,13.122631305520434
2.9685892394497086,4.023366491810484,10.220631529421574
2.9635299731096074,4.027094498330151,10.8917605102645
2.9584660250786787,4.030816142973426,10.177796014446457
2.9533974033567874,4.034531419860972,16.437890483137235
2.9483241159511806,4.038240323123512,12.869135577666848
2.9432461708764794,4.041942846901839,5.103108711374091
2.9381635761546585,4.045638985346822,7.6251251833544
2.9330763398150417,4.04932873261942,19.812415543600757
2.9279844698942825,4.053012082890685,8.93448993001452
2.9228879744363567,4.056689030341779,17.919842873789857
2.9177868614925466,4.0603595691639764,16.94167883599601
2.9126811391214282,4.064023693558675,17.976605518761918
2.9075708153888606,4.067681397737408,16.26198878211139
2.902455898367971,4.07133267592185,14.681255106214937
2.897336396139144,4.074977522343827,10.45211169460195
2.8922123167900073,4.078615931245326,11.04948423179991
2.887083668415418,4.0822478968785045,6.171535812124325
2.881950459117453,4.0858734135056975,2.6412970522951906
2.876812697005395,4.089492475399429,6.135061605787648
2.8716703901957166,4.093105076842419,3.397538877386199
2.866523546812071,4.096711212127595,11.965214440769003
2.861372174985279,4.1003108755580975,9.119701405743701
2.856216282853315,4.1039040614472935,19.55764731093781
2.8510558785612936,4.107490764118781,2.9281259852727093
2.8458909702614594,4.111070977906401,19.904101167443255
2.8407215661131695,4.114644697154244,0.44872313611091785
2.8355476742828856,4.118211916216663,2.298187678730106
2.830369302944158,4.1217726294582775,12.73654027576981
2.8251864602776138,4.125326831253985,12.84538744754768
2.8199991544709437,4.128874515988971,7.031409422655295
2.8148073937188895,4.132415678058715,7.916844259471394
2.8096111862232305,4.135950311869002,9.064972472876843
2.8044105401927704,4.139478411835928,12.696592657367532
2.7992054638433257,4.142999972385912,12.587790635827307
2.7939959653977104,4.146514987955706,11.900771239854716
2.788782053085726,4.1500234529924,0.9177381684108288
2.7835637351441456,4.15352536195343,19.50095075408617
2.7783410198167022,4.157020709306592,4.604689495159784
2.773113915354078,4.160509489530048,17.97142188295315
2.767882430013885,4.163991697112331,1.837657709299847
2.762646572060659,4.167467326552361,18.637298359201054
2.7574063497658434,4.17093637235945,16.352457350165285
2.752161771407774,4.174398829053308,18.461766125414787
2.7469128452716705,4.177854691164054,12.656959051096862
2.7416595796496206,4.181303953232229,19.93392859680915
2.736401982840566,4.184746609808797,4.24189560566671
2.731140063150293,4.188182655455158,6.928203900319943
2.725873828891414,4.191612084743156,5.136691464798719
2.7206032883833613,4.195034892255086,18.270841265444155
2.715328449952366,4.198451072583707,16.91709563444669
2.7100493219314514,4.201860620332245,4.308044592329205
2.7047659126604175,4.205263530114404,15.454693975908329
2.699478230485826,4.208659796554375,14.57161035335394
2.6941862837609905,4.212049414286843,16.259211619999313
2.6888900808459604,4.215432377957,14.278967603290841
2.68358963010751,4.218808682220543,7.434306347108535
2.6782849399191235,4.222178321743696,8.099029327440022
2.672976018660982,4.22554129120321,17.851111607352152
2.667662874719951,4.2288975852863695,3.0692736399757514
2.662345516489568,4.2322471986910095,5.02053034288616
2.657023952370027,4.2355901261255156,3.924234858004181
2.651698190768166,4.238926362308837,14.200340685575554
2.6463682400974546,4.242255901970495,15.564172306054374
2.6410341087779807,4.245578739850587,6.15078290163916
2.635695805236436,4.248894870699798,8.83035077955066
2.6303533379061026,4.252204289279411,1.718937817731656
2.6250067152268426,4.255506990361311,9.30425308116317
2.6196559456450803,4.258802968727995,13.795649741780462
2.6143010376137914,4.2620922191725805,6.81841655637248
2.6089419995924916,4.265374736498814,4.9499138209605364
2.6035788400472186,4.268650515521079,3.7519146415940585
2.598211567450522,4.271919551064404,2.6113847465212503
2.5928401902814513,4.2751818379644675,13.711451001826763
2.5874647170255347,4.278437371067615,14.104606902111668
2.582085156174776,4.281686145230857,5.702616760578723
2.5767015162276357,4.284928155321884,9.642749090920091
2.5713138056890172,4.28816339621907,19.010435090528354
2.5659220330702546,4.2913918628114835,16.95804123809358
2.5605262068891004,4.294613549998895,13.268867153815304
2.5551263356697103,4.297828452691787,5.671555608827285
2.549722427942629,4.301036565811357,6.211662046656279
2.5443144922447787,4.3042378842895275,5.228884604304307
2.5389025371194456,4.30743240306896,14.996246047171777
2.5334865711162653,4.310620117103054,8.0061317265036
2.528066602791209,4.313801021355959,12.083655422963442
2.522642640706571,4.316975110802583,1.0188283149143085
2.5172146934309545,4.320142380428601,17.22933306052852
2.51178276953926,4.323302825230461,19.47084014341405
2.506346877612668,4.326456440215391,11.705699440749695
2.5009070262386284,4.32960322040141,13.14286100417284
2.4954632240108463,4.332743160817335,17.73977594707232
2.4900154795292684,4.335876256502788,15.264601468618205
2.4845638014000686,4.339002502508202,2.58701050232629
2.479108198235636,4.342121893894834,2.3300125556274076
2.473648678654559,4.345234425734768,5.552626962993825
2.468185251281614,4.348340093110924,3.052299875308646
2.462717924747751,4.351438891117067,9.1445547869731
2.4572467076900786,4.3545308148578155,6.467942290464652
2.4517716087518533,4.357615859448645,11.963211868373332
2.446292636582462,4.3606940200159,5.877979783411032
2.440809799837412,4.363765291696799,4.527591034047056
2.435323107178316,4.366829669639446,11.755714581245995
2.429832567272876,4.369887149002833,11.252338185442383
2.4243381887948736,4.37293772495685,13.362868629935216
2.418839980424154,4.375981392682295,1.5079701296472714
2.413337950846614,4.379018147370877,4.040705588703755
2.4078321087541834,4.382047984225228,3.5113111925787766
2.4023224628448183,4.385070898458907,2.626986102632052
2.396809021822483,4.388086885296411,2.7658055429178185
2.391291794397137,4.3910959399731775,11.100901509176754
2.385770789284721,4.394098057735598,12.050065055219367
2.3802460152071454,4.397093233841023,17.375098116065747
2.3747174808922717,4.400081463557767,11.295798476902402
2.369185195073905,4.40306274216512,3.1054284455704617
2.363649166491774,4.406037064953352,1.6615248543488037
2.358109403891522,4.409004427223721,0.28561072513469066
2.35256591602469,4.411964824288484,18.042970207813504
2.347018711648706,4.414918251470898,6.69164224346904
2.3414677995268667,4.417864704105233,8.011972513551896
2.3359131884283273,4.420804177536776,9.053278853612294
2.3303548871280864,4.423736667121839,1.3599635299377089
2.3247929044069733,4.426662168227771,10.266407493306712
2.319227249051632,4.429580676232955,16.726188363954762
2.313657929854508,4.432492186526825,6.343382135156688
2.308084955613836,4.435396694509869,18.532223826231217
2.3025083351336244,4.438294195593639,18.724103603050782
2.296928077223641,4.441184685200753,14.323030345321238
2.2913441906994008,4.444068158764907,13.320569119684675
2.2857566843821515,4.446944611730881,18.267430442469653
2.2801655670988583,4.449814039554545,8.704244226834962
2.274570847682191,4.45267643770287,11.193137970011458
2.2689725349705103,4.455531801653928,7.968285026280664
2.2633706378078537,4.458380126896905,15.88790074266699
2.257765165043921,4.46122140893211,7.097855381940931
2.2521561255340607,4.464055643270972,8.602499768956617
2.246543528139255,4.466882825436059,17.584693834392723
2.2409273817261095,4.469702950961078,17.85432914378097
2.235307695166832,4.472516015390883,4.482642611203591
2.2296844773392266,4.4753220142814865,19.220365903118463
2.2240577371266745,4.478120943200058,1.2467189536228607
2.2184274834181226,4.480912797724939,7.80495550766056
2.212793725108066,4.483697573445645,14.102102838461338
2.2071564710965395,4.486475265962878,19.024778861645537
2.201515730289097,4.489245870888524,19.939827304524066
2.195871511596803,4.492009383845671,11.016441444233635
2.1902238239362153,4.49476580046861,3.1277893822758096
2.1845726762293722,4.497515116402838,6.426540753615186
2.1789180774037775,4.500257327305076,11.60672376930869
2.1732600363923877,4.502992428843264,3.4866599895978467
2.1675985621335974,4.505720416696575,9.553687445310084
2.1619336635712236,4.5084412865554215,5.509907410959669
2.156265349654494,4.511155034121459,6.14694162885063
2.150593629338031,4.513861655107595,2.637908439439498
2.14491851158184,4.516561145237994,4.668877686651973
2.1392400053512914,4.519253500248089,3.2303436351860015
2.1335581196171094,4.521938715884582,17.596034444541147
2.127872863355358,4.524616787905455,5.654708731499705
2.1221842455474245,4.527287712079972,7.3323883610339795
2.116492275180007,4.529951484188695,1.664351213202131
2.1107969612451005,4.532608100023479,1.6814748148995506
2.105098312739982,4.535257555387487,7.733926319677393
2.0993963386671948,4.537899846095193,10.426163349237079
2.0936910480345383,4.54053496797239,16.001655322804385
2.0879824498550494,4.543162916856197,4.884874675998255
2.0822705531469907,4.545783688595062,16.36804238411583
2.076555366933836,4.548397279048773,6.972151512526475
2.0708369002442555,4.551003684088463,6.1622362410011515
2.065115162112102,4.553602899596616,6.79139028092594
2.059390161576396,4.556194921467073,11.244049918935104
2.0536619076813127,4.55877974560504,9.353597502375163
2.047930409476165,4.561357367927094,15.359109606273618
2.042195676015393,4.563927784361189,12.961303651232605
2.036457716358547,4.566490990846662,18.23101260318905
2.030716539570274,4.569046983334241,2.588599426005991
2.0249721547203037,4.57159575778605,12.680627934729394
2.019224570883433,4.574137310175615,7.8877251882602
2.013473797139513,4.576671636487873,0.8993615519301512
2.007719842573434,4.579198732719176,5.498446846346661
2.001962716275111,4.581718594877295,5.48706154956238
1.9962024273394703,4.584231218981435,10.503512396094061
1.9904389848664337,4.586736601062228,17.912863511845266
1.9846723979609053,4.589234737161753,10.635449750817616
1.9789026757327566,4.591725623333534,11.42043563992303
1.9731298272968116,4.594209255642548,1.213412043490112
1.9673538617728341,4.59668563016523,0.32528317928107064
1.9615747882855117,4.599154742989483,17.185662156675704
1.955792615964441,4.601616590214679,1.1546373094800355
1.9500073539441154,4.6040711679516715,6.907813078851481
1.9442190113639082,4.606518472322795,18.359194126156595
1.93842759736806,4.608958499461878,10.601080432269045
1.9326331211056633,4.611391245514241,11.540813489551487
1.9268355917306481,4.613816706636708,3.3220743246700835
1.9210350184017684,4.616234878997615,7.753011850341844
1.9152314102825851,4.618645758776806,2.6251501292703816
1.9094247765414556,4.621049342165653,6.9694229133641645
1.9036151263515155,4.623445625367049,13.444297919943766
1.8978024688906667,4.625834604595423,9.622121447005469
1.8919868133415607,4.62821627607674,3.6925744165970364
1.8861681688915868,4.630590636048511,9.573117206467893
1.880346544732855,4.632957680759799,1.3440326322344975
